# .PCD v0.7 - Point Cloud Data file format
VERSION 0.7
FIELDS x y z rgb
SIZE 4 4 4 4
TYPE F F F U
COUNT 1 1 1 1
WIDTH 1075
HEIGHT 1
VIEWPOINT 0 0 0 1 0 0 0
POINTS 1075
DATA ascii
-0.11118309 -0.041006692 0.46862167 6710886
-0.11013104 -0.040929928 0.46774441 6710886
-0.10908293 -0.040853452 0.46687046 6710886
-0.10803867 -0.040777244 0.46599954 6710886
-0.10699819 -0.040701274 0.46513137 6710886
-0.10604087 -0.040655989 0.46461385 6710886
-0.10508715 -0.040611368 0.46410394 6710886
-0.10413545 -0.040566821 0.46359485 6710886
-0.10318585 -0.040522378 0.46308696 6710886
-0.10223831 -0.040478025 0.46258011 6710886
-0.10129286 -0.040433776 0.46207443 6710886
-0.10038865 -0.040405389 0.46175003 6710886
-0.09949889 -0.040382396 0.46148726 6710886
-0.098610193 -0.040359445 0.461225 6710886
-0.097722515 -0.040336527 0.46096307 6710886
-0.096835844 -0.040313635 0.46070147 6710886
-0.095950179 -0.040290769 0.46044016 6710886
-0.095065504 -0.040267922 0.46017906 6710886
-0.094199829 -0.04025279 0.46000615 6710886
-0.093355276 -0.040246494 0.4599342 6710886
-0.092510976 -0.040240198 0.45986226 6710886
-0.091666929 -0.040233903 0.45979029 6710886
-0.090823151 -0.040227603 0.45971832 6710886
-0.089979626 -0.040221307 0.45964637 6710886
-0.089136377 -0.040215015 0.45957446 6710886
-0.088293381 -0.040208723 0.45950255 6710886
-0.08745794 -0.04020578 0.45946893 6710886
-0.086631261 -0.040206853 0.45948118 6710886
-0.085804544 -0.040207926 0.45949346 6710886
-0.084977791 -0.040209003 0.45950574 6710886
-0.084150977 -0.040210072 0.45951796 6710886
-0.083324134 -0.040211149 0.45953026 6710886
-0.082497239 -0.040212221 0.45954254 6710886
-0.081670292 -0.040213291 0.45955476 6710886
-0.080843322 -0.040214371 0.45956707 6710886
-0.080016285 -0.04021544 0.45957929 6710886
-0.079189219 -0.040216513 0.45959157 6710886
-0.078362107 -0.04021759 0.45960388 6710886
-0.077534936 -0.040218655 0.45961607 6710886
-0.076707721 -0.040219724 0.45962825 6710886
-0.075880468 -0.040220793 0.45964047 6710886
-0.075053163 -0.040221859 0.45965266 6710886
-0.074225813 -0.040222924 0.45966485 6710886
-0.073398441 -0.040224005 0.45967716 6710886
-0.072571009 -0.040225074 0.45968941 6710886
-0.07174354 -0.040226147 0.45970166 6710886
-0.070916027 -0.040227219 0.45971394 6710886
-0.070088468 -0.040228292 0.45972618 6710886
-0.069260865 -0.040229365 0.45973843 6710886
-0.068433218 -0.040230438 0.45975068 6710886
-0.067605533 -0.040231515 0.45976299 6710886
-0.066777796 -0.040232584 0.45977524 6710886
-0.065950014 -0.040233657 0.45978749 6710886
-0.065122202 -0.040234733 0.4597998 6710886
-0.064294331 -0.040235806 0.45981205 6710886
-0.063466422 -0.040236879 0.45982432 6710886
-0.062638462 -0.040237952 0.45983657 6710886
-0.061810471 -0.040239032 0.45984891 6710886
-0.060982432 -0.040240109 0.45986122 6710886
-0.060154349 -0.040241186 0.45987353 6710886
-0.05932622 -0.040242262 0.45988581 6710886
-0.058498047 -0.040243339 0.45989811 6710886
-0.05766983 -0.040244415 0.45991042 6710886
-0.056841571 -0.040245492 0.45992273 6710886
-0.056013264 -0.040246569 0.45993504 6710886
-0.055184916 -0.040247645 0.45994735 6710886
-0.054356523 -0.040248722 0.45995966 6710886
-0.053528085 -0.040249798 0.45997196 6710886
-0.052699603 -0.040250875 0.45998427 6710886
-0.051871076 -0.040251955 0.45999658 6710886
-0.051042497 -0.040253025 0.46000883 6710886
-0.050213881 -0.040254101 0.46002114 6710886
-0.04938522 -0.040255181 0.46003345 6710886
-0.048556514 -0.040256254 0.46004573 6710886
-0.047727738 -0.040257309 0.4600578 6710886
-0.046898916 -0.040258363 0.46006981 6710886
-0.046070091 -0.040259447 0.46008223 6710886
-0.04524124 -0.040260553 0.46009487 6710886
-0.044412341 -0.040261656 0.46010745 6710886
-0.043583397 -0.040262755 0.46012002 6710886
-0.043147378 -0.040633939 0.46436188 6710886
-0.043196339 -0.041485593 0.47409454 6710886
-0.043247502 -0.042373817 0.48424509 6710886
-0.014175971 -0.03928769 0.44897705 6710886
-0.013366274 -0.039288744 0.44898909 6710886
-0.012556533 -0.039289799 0.44900113 6710886
-0.011746749 -0.039290853 0.44901317 6710886
-0.010936922 -0.039291907 0.44902521 6710886
-0.010127051 -0.039292958 0.44903722 6710886
-0.0093171373 -0.039294012 0.44904929 6710886
-0.0085071791 -0.039295062 0.4490613 6710886
-0.0076971781 -0.03929612 0.44907337 6710886
-0.0068871328 -0.039297171 0.44908538 6710886
-0.0060770451 -0.039298225 0.44909742 6710886
-0.0052669137 -0.039299279 0.44910949 6710886
-0.0044567385 -0.03930033 0.44912151 6710886
-0.0036465204 -0.039301388 0.44913357 6710886
-0.0028362586 -0.039302442 0.44914562 6710886
-0.0020259533 -0.039303493 0.44915763 6710886
-0.0012156046 -0.039304547 0.4491697 6710886
-0.0004052124 -0.039305601 0.44918174 6710886
0.00040522328 -0.039306659 0.44919381 6710886
0.0012157024 -0.03930771 0.44920582 6710886
0.002026225 -0.039308764 0.44921786 6710886
0.0028367904 -0.039309811 0.44922984 6710886
0.0036473994 -0.039310858 0.44924182 6710886
0.0044580512 -0.039311908 0.4492538 6710886
0.0052687465 -0.039312955 0.44926578 6710886
0.0060794852 -0.039314006 0.44927776 6710886
0.0068902671 -0.039315052 0.44928974 6710886
0.0077010919 -0.039316099 0.44930172 6710886
0.0085119605 -0.039317153 0.44931373 6710886
0.0093228724 -0.0393182 0.44932571 6710886
0.010133827 -0.039319247 0.44933769 6710886
0.010944825 -0.039320298 0.44934967 6710886
0.011755866 -0.039321344 0.44936165 6710886
0.012566951 -0.039322395 0.44937366 6710886
0.013378079 -0.039323445 0.44938564 6710886
0.01418925 -0.039324492 0.44939762 6710886
0.015000464 -0.039325543 0.4494096 6710886
0.015811723 -0.039326593 0.44942161 6710886
0.016623024 -0.03932764 0.44943359 6710886
0.017434368 -0.039328691 0.44944558 6710886
0.018245758 -0.039329745 0.44945765 6710886
0.019057188 -0.039330795 0.44946963 6710886
0.019868663 -0.039331842 0.44948161 6710886
0.020680182 -0.039332893 0.44949362 6710886
0.021491742 -0.03933394 0.4495056 6710886
0.022303347 -0.039334994 0.44951761 6710886
0.023114992 -0.039336041 0.44952959 6710886
0.023926685 -0.039337091 0.4495416 6710886
0.024738418 -0.039338142 0.44955358 6710886
0.025550196 -0.039339192 0.44956559 6710886
0.026362017 -0.039340243 0.4495776 6710886
0.02717388 -0.03934129 0.44958958 6710886
0.027985789 -0.03934234 0.44960159 6710886
0.02879774 -0.039343391 0.4496136 6710886
0.029609734 -0.039344441 0.44962558 6710886
0.030421771 -0.039345492 0.44963759 6710886
0.031233853 -0.039346542 0.4496496 6710886
0.032045979 -0.039347593 0.44966161 6710886
0.032858144 -0.039348643 0.44967359 6710886
0.033670355 -0.039349694 0.4496856 6710886
0.034482609 -0.039350744 0.44969761 6710886
-0.11883568 -0.041052327 0.47901988 6710886
-0.11717716 -0.040775932 0.47579479 6710886
-0.11578019 -0.040587153 0.47359198 6710886
-0.11455226 -0.040455259 0.47205299 6710886
-0.11333226 -0.040324211 0.47052386 6710886
-0.11214224 -0.040201936 0.46909708 6710886
-0.11108733 -0.040126603 0.46821806 6710886
-0.11003637 -0.040051553 0.46734235 6710886
-0.10898934 -0.039976783 0.46646988 6710886
-0.10794608 -0.039902251 0.46560019 6710886
-0.1069235 -0.039834246 0.46480668 6710886
-0.10596843 -0.039790515 0.46429643 6710886
-0.10501541 -0.039746869 0.46378714 6710886
-0.10406445 -0.039703306 0.4632788 6710886
-0.10311557 -0.039659832 0.46277153 6710886
-0.10216876 -0.039616458 0.46226543 6710886
-0.10122402 -0.039573178 0.4617604 6710886
-0.10033212 -0.039550006 0.46149004 6710886
-0.099442907 -0.039527517 0.4612276 6710886
-0.098554738 -0.039505061 0.4609656 6710886
-0.09766759 -0.039482642 0.460704 6710886
-0.096781448 -0.039460246 0.46044266 6710886
-0.095896311 -0.039437879 0.46018165 6710886
-0.095012166 -0.039415527 0.45992085 6710886
-0.094155446 -0.039404262 0.4597894 6710886
-0.093311295 -0.039398104 0.45971754 6710886
-0.092467405 -0.039391942 0.45964566 6710886
-0.091623761 -0.039385781 0.45957375 6710886
-0.090780385 -0.039379619 0.45950186 6710886
-0.08993727 -0.039373457 0.45942998 6710886
-0.089094415 -0.0393673 0.45935813 6710886
-0.088251829 -0.039361145 0.4592863 6710886
-0.087420225 -0.039359815 0.45927081 6710886
-0.086593904 -0.039360866 0.45928302 6710886
-0.085767545 -0.039361916 0.4592953 6710886
-0.084941141 -0.039362967 0.45930758 6710886
-0.084114686 -0.039364018 0.4593198 6710886
-0.0832882 -0.039365068 0.45933208 6710886
-0.082461663 -0.039366122 0.45934436 6710886
-0.081635073 -0.039367169 0.45935658 6710886
-0.080808453 -0.03936822 0.45936885 6710886
-0.079981774 -0.039369266 0.45938107 6710886
-0.079155065 -0.039370321 0.45939335 6710886
-0.078328311 -0.039371371 0.45940563 6710886
-0.077501491 -0.039372414 0.45941779 6710886
-0.07667464 -0.039373465 0.45943004 6710886
-0.07584773 -0.039374504 0.4594422 6710886
-0.075020798 -0.039375555 0.45945445 6710886
-0.074193805 -0.039376602 0.45946664 6710886
-0.073366776 -0.039377648 0.45947886 6710886
-0.072539702 -0.039378695 0.45949107 6710886
-0.071712583 -0.039379746 0.45950332 6710886
-0.070885435 -0.039380796 0.4595156 6710886
-0.070058227 -0.039381843 0.45952782 6710886
-0.069230989 -0.039382897 0.4595401 6710886
-0.068403691 -0.039383944 0.45955232 6710886
-0.067576364 -0.039384995 0.4595646 6710886
-0.066748984 -0.039386045 0.45957685 6710886
-0.06592156 -0.039387096 0.45958909 6710886
-0.065094098 -0.039388146 0.45960137 6710886
-0.064266585 -0.039389197 0.45961362 6710886
-0.063439034 -0.039390247 0.4596259 6710886
-0.062611431 -0.039391298 0.45963815 6710886
-0.061783794 -0.039392352 0.45965043 6710886
-0.060956106 -0.039393399 0.45966268 6710886
-0.06012838 -0.039394457 0.45967498 6710886
-0.059300609 -0.039395511 0.45968729 6710886
-0.058472794 -0.039396562 0.45969957 6710886
-0.057644933 -0.039397616 0.45971188 6710886
-0.056817029 -0.03939867 0.45972416 6710886
-0.055989083 -0.039399724 0.45973647 6710886
-0.055161089 -0.039400775 0.45974874 6710886
-0.054333054 -0.039401833 0.45976105 6710886
-0.053504974 -0.039402887 0.45977336 6710886
-0.052676845 -0.039403938 0.45978564 6710886
-0.051848676 -0.039404992 0.45979795 6710886
-0.051020455 -0.039406043 0.4598102 6710886
-0.0501922 -0.039407097 0.45982251 6710886
-0.049363893 -0.039408151 0.45983478 6710886
-0.048535526 -0.039409187 0.45984688 6710886
-0.047707103 -0.039410215 0.45985889 6710886
-0.046878684 -0.03941128 0.45987132 6710886
-0.046050228 -0.039412357 0.45988387 6710886
-0.045221735 -0.039413441 0.4598965 6710886
-0.044393189 -0.039414514 0.45990905 6710886
-0.043641821 -0.039485458 0.46073684 6710886
-0.043298904 -0.039935883 0.46599263 6710886
-0.043351229 -0.04077591 0.47579449 6710886
-0.043405917 -0.041652143 0.48601887 6710886
-0.014169842 -0.038461 0.44878295 6710886
-0.013360497 -0.038462035 0.44879502 6710886
-0.012551106 -0.038463064 0.44880703 6710886
-0.011741672 -0.038464095 0.44881907 6710886
-0.010932194 -0.038465127 0.44883108 6710886
-0.010122673 -0.038466156 0.44884309 6710886
-0.0093131084 -0.038467187 0.44885513 6710886
-0.0085035004 -0.038468216 0.44886714 6710886
-0.00769385 -0.038469251 0.44887921 6710886
-0.0068841553 -0.038470279 0.44889122 6710886
-0.0060744174 -0.038471308 0.44890323 6710886
-0.0052646366 -0.038472343 0.4489153 6710886
-0.0044548116 -0.038473371 0.44892731 6710886
-0.0036449437 -0.038474403 0.44893935 6710886
-0.0028350321 -0.038475435 0.44895136 6710886
-0.0020250771 -0.038476467 0.4489634 6710886
-0.0012150789 -0.038477499 0.44897544 6710886
-0.00040503716 -0.038478531 0.44898748 6710886
0.00040504802 -0.038479563 0.44899952 6710886
0.0012151767 -0.038480595 0.44901156 6710886
0.0020253486 -0.038481627 0.4490236 6710886
0.0028355641 -0.038482659 0.44903564 6710886
0.0036458224 -0.038483679 0.4490476 6710886
0.0044561243 -0.038484707 0.44905958 6710886
0.005266469 -0.038485736 0.44907156 6710886
0.0060768565 -0.03848676 0.44908351 6710886
0.0068872878 -0.038487785 0.44909549 6710886
0.0076977625 -0.038488813 0.44910747 6710886
0.0085082799 -0.038489837 0.44911945 6710886
0.0093188416 -0.038490865 0.44913143 6710886
0.010129444 -0.03849189 0.44914338 6710886
0.010940092 -0.038492918 0.44915536 6710886
0.011750783 -0.038493942 0.44916734 6710886
0.012561517 -0.038494971 0.44917932 6710886
0.013372294 -0.038495995 0.4491913 6710886
0.014183114 -0.038497023 0.44920328 6710886
0.014993978 -0.038498051 0.44921526 6710886
0.015804885 -0.038499076 0.44922724 6710886
0.016615834 -0.038500104 0.44923922 6710886
0.017426828 -0.038501132 0.4492512 6710886
0.018237866 -0.038502164 0.44926324 6710886
0.019048946 -0.038503189 0.44927523 6710886
0.019860068 -0.038504217 0.44928721 6710886
0.020671235 -0.038505241 0.44929919 6710886
0.021482445 -0.038506269 0.44931117 6710886
0.022293698 -0.038507298 0.44932315 6710886
0.023104994 -0.038508322 0.44933513 6710886
0.023916332 -0.03850935 0.44934711 6710886
0.024727717 -0.038510378 0.44935912 6710886
0.025539143 -0.038511407 0.4493711 6710886
0.026350612 -0.038512431 0.44938308 6710886
0.027162123 -0.038513459 0.44939506 6710886
0.027973682 -0.038514487 0.44940707 6710886
0.028785279 -0.038515516 0.44941905 6710886
0.029596921 -0.03851654 0.44943103 6710886
0.03040861 -0.038517572 0.44944304 6710886
0.031220337 -0.038518596 0.44945502 6710886
0.03203211 -0.038519628 0.44946703 6710886
0.032843925 -0.038520653 0.44947901 6710886
0.033655785 -0.038521685 0.44949102 6710886
-0.12164042 -0.040839564 0.48678538 6710886
-0.11859968 -0.040108256 0.47806859 6710886
-0.11694602 -0.039838754 0.47485626 6710886
-0.11564363 -0.039685819 0.47303337 6710886
-0.11441756 -0.039557002 0.47149792 6710886
-0.11319951 -0.039429042 0.46997273 6710886
-0.11204556 -0.03932165 0.46869266 6710886
-0.11099174 -0.039248031 0.46781516 6710886
-0.10994186 -0.039174687 0.46694094 6710886
-0.1088959 -0.039101616 0.46606997 6710886
-0.10785367 -0.03902876 0.46520159 6710886
-0.10685042 -0.038968977 0.46448898 6710886
-0.10589609 -0.038926229 0.46397948 6710886
-0.1049438 -0.038883559 0.46347085 6710886
-0.10399355 -0.038840964 0.46296316 6710886
-0.10304539 -0.038798466 0.46245661 6710886
-0.10209931 -0.038756061 0.46195117 6710886
-0.10116535 -0.038717605 0.46149278 6710886
-0.10027566 -0.038695585 0.46123031 6710886
-0.099386983 -0.038673595 0.4609682 6710886
-0.09849935 -0.038651645 0.46070656 6710886
-0.097612724 -0.038629718 0.4604452 6710886
-0.096727118 -0.038607817 0.46018419 6710886
-0.095842503 -0.038585942 0.45992345 6710886
-0.094958894 -0.038564093 0.459663 6710886
-0.094111107 -0.038556531 0.45957288 6710886
-0.093267351 -0.038550507 0.45950106 6710886
-0.092423871 -0.038544483 0.45942926 6710886
-0.091580637 -0.038538456 0.45935744 6710886
-0.090737656 -0.038532428 0.45928559 6710886
-0.08989495 -0.038526405 0.45921379 6710886
-0.089052498 -0.038520385 0.459142 6710886
-0.088210315 -0.038514361 0.45907024 6710886
-0.087382548 -0.038514581 0.45907286 6710886
-0.086556584 -0.038515609 0.45908508 6710886
-0.085730575 -0.038516633 0.45909733 6710886
-0.084904522 -0.038517661 0.45910957 6710886
-0.084078424 -0.03851869 0.45912179 6710886
-0.083252296 -0.038519718 0.45913407 6710886
-0.082426108 -0.038520746 0.45914632 6710886
-0.081599876 -0.03852177 0.45915854 6710886
-0.080773614 -0.038522802 0.45917082 6710886
-0.079947293 -0.038523823 0.45918301 6710886
-0.079120934 -0.038524855 0.45919529 6710886
-0.078294538 -0.038525883 0.45920756 6710886
-0.077468082 -0.038526908 0.45921978 6710886
-0.076641582 -0.038527928 0.45923194 6710886
-0.075815037 -0.038528953 0.45924416 6710886
-0.074988447 -0.038529973 0.45925632 6710886
-0.074161813 -0.038530998 0.45926851 6710886
-0.073335141 -0.038532022 0.45928073 6710886
-0.072508425 -0.038533047 0.45929295 6710886
-0.071681663 -0.038534071 0.45930517 6710886
-0.070854865 -0.038535103 0.45931745 6710886
-0.070028014 -0.038536128 0.45932966 6710886
-0.069201127 -0.038537156 0.45934191 6710886
-0.068374194 -0.03853818 0.45935413 6710886
-0.067547217 -0.038539208 0.45936641 6710886
-0.066720195 -0.038540237 0.45937863 6710886
-0.065893121 -0.038541261 0.45939085 6710886
-0.065066017 -0.038542289 0.45940313 6710886
-0.064238861 -0.038543317 0.45941535 6710886
-0.063411668 -0.038544346 0.45942762 6710886
-0.062584423 -0.038545374 0.45943987 6710886
-0.06175714 -0.038546402 0.45945215 6710886
-0.060929805 -0.03854743 0.45946437 6710886
-0.060102433 -0.038548455 0.45947662 6710886
-0.059275024 -0.03854949 0.45948896 6710886
-0.05844757 -0.038550526 0.45950127 6710886
-0.057620063 -0.038551554 0.45951355 6710886
-0.056792509 -0.038552579 0.45952576 6710886
-0.055964917 -0.03855361 0.45953804 6710886
-0.055137284 -0.038554642 0.45955035 6710886
-0.054309603 -0.038555671 0.45956263 6710886
-0.053481877 -0.038556702 0.45957491 6710886
-0.052654106 -0.038557734 0.45958719 6710886
-0.051826298 -0.038558766 0.45959949 6710886
-0.050998438 -0.038559794 0.45961177 6710886
-0.050170537 -0.038560826 0.45962405 6710886
-0.049342576 -0.038561847 0.45963621 6710886
-0.04851456 -0.038562857 0.45964825 6710886
-0.047686532 -0.038563892 0.45966059 6710886
-0.046858478 -0.038564943 0.45967314 6710886
-0.046030384 -0.038565997 0.45968568 6710886
-0.045202244 -0.038567051 0.45969826 6710886
-0.044537053 -0.038709775 0.46139944 6710886
-0.043874998 -0.038860712 0.46319854 6710886
-0.043451499 -0.03923291 0.46763492 6710886
-0.043507237 -0.04006112 0.47750673 6710886
-0.043565497 -0.040925164 0.48780569 6710886
-0.01416372 -0.037635028 0.44858906 6710886
-0.013354723 -0.037636038 0.4486011 6710886
-0.012545682 -0.037637044 0.44861308 6710886
-0.011736598 -0.037638053 0.44862512 6710886
-0.010927469 -0.037639063 0.44863713 6710886
-0.010118297 -0.037640065 0.44864911 6710886
-0.0093090842 -0.037641078 0.44866118 6710886
-0.0084998254 -0.037642084 0.44867316 6710886
-0.0076905251 -0.037643097 0.44868523 6710886
-0.0068811798 -0.037644103 0.44869721 6710886
-0.006071792 -0.037645109 0.44870922 6710886
-0.0052623609 -0.037646119 0.44872126 6710886
-0.0044528861 -0.037647128 0.44873327 6710886
-0.0036433681 -0.037648138 0.44874531 6710886
-0.0028338067 -0.037649143 0.44875732 6710886
-0.0020242017 -0.037650153 0.44876933 6710886
-0.0012145536 -0.037651163 0.44878137 6710886
-0.00040486205 -0.037652172 0.44879338 6710886
0.0004048729 -0.037653182 0.44880542 6710886
0.0012146513 -0.037654188 0.44881743 6710886
0.0020244732 -0.037655201 0.4488295 6710886
0.0028343382 -0.03765621 0.44884151 6710886
0.0036442468 -0.037657216 0.44885352 6710886
0.0044541988 -0.037658226 0.44886556 6710886
0.0052641938 -0.037659232 0.44887754 6710886
0.0060742311 -0.037660234 0.44888949 6710886
0.0068843123 -0.037661236 0.44890144 6710886
0.0076944367 -0.037662242 0.44891343 6710886
0.008504604 -0.037663244 0.44892538 6710886
0.0093148146 -0.03766425 0.44893736 6710886
0.010125068 -0.037665252 0.44894931 6710886
0.010935365 -0.037666257 0.44896129 6710886
0.011745704 -0.03766726 0.44897324 6710886
0.012556088 -0.037668265 0.44898522 6710886
0.013366515 -0.037669268 0.44899717 6710886
0.014176984 -0.037670273 0.44900915 6710886
0.014987498 -0.037671279 0.44902113 6710886
0.015798053 -0.037672281 0.44903308 6710886
0.016608654 -0.037673287 0.44904506 6710886
0.017419295 -0.037674289 0.44905701 6710886
0.018229984 -0.037675299 0.44906905 6710886
0.019040713 -0.037676305 0.44908103 6710886
0.019851483 -0.037677307 0.44909298 6710886
0.0206623 -0.037678313 0.44910496 6710886
0.021473158 -0.037679318 0.44911695 6710886
0.022284061 -0.03768032 0.44912893 6710886
0.023095006 -0.037681323 0.44914088 6710886
0.023905994 -0.037682328 0.44915286 6710886
0.024717025 -0.037683334 0.44916484 6710886
0.025528101 -0.03768434 0.44917682 6710886
0.02633922 -0.037685346 0.4491888 6710886
0.027150381 -0.037686352 0.44920078 6710886
0.027961586 -0.037687354 0.44921276 6710886
0.028772835 -0.03768836 0.44922474 6710886
0.029584125 -0.037689365 0.44923672 6710886
0.030395459 -0.037690371 0.4492487 6710886
0.031206837 -0.037691377 0.44926068 6710886
0.032018259 -0.037692379 0.44927266 6710886
0.032829724 -0.037693385 0.44928464 6710886
0.03364123 -0.037694391 0.44929662 6710886
-0.12028816 -0.039517049 0.48137382 6710886
-0.11836462 -0.039167929 0.47712108 6710886
-0.11673953 -0.038913179 0.47401783 6710886
-0.11550736 -0.038786605 0.47247598 6710886
-0.11428318 -0.038660854 0.47094417 6710886
-0.11306707 -0.038535967 0.46942288 6710886
-0.11194905 -0.038442884 0.46828896 6710886
-0.11089631 -0.038370967 0.46741295 6710886
-0.10984752 -0.038299326 0.46654025 6710886
-0.10880259 -0.038227934 0.46567062 6710886
-0.10776141 -0.038156763 0.46480364 6710886
-0.10677744 -0.038104892 0.46417177 6710886
-0.10582384 -0.03806312 0.46366292 6710886
-0.10487226 -0.038021415 0.46315491 6710886
-0.10392275 -0.0379798 0.46264797 6710886
-0.10297531 -0.037938271 0.46214208 6710886
-0.10202994 -0.037896838 0.46163735 6710886
-0.10110843 -0.037863653 0.46123311 6710886
-0.10021926 -0.037842128 0.46097094 6710886
-0.099331118 -0.037820634 0.4607091 6710886
-0.098444022 -0.037799183 0.46044779 6710886
-0.097557932 -0.037777752 0.46018675 6710886
-0.096672848 -0.03775635 0.45992601 6710886
-0.095788769 -0.037734967 0.45966557 6710886
-0.09491042 -0.037715495 0.45942834 6710886
-0.094066821 -0.037709605 0.45935661 6710886
-0.093223475 -0.037703715 0.45928487 6710886
-0.092380382 -0.037697822 0.45921308 6710886
-0.09153755 -0.037691932 0.45914131 6710886
-0.090694979 -0.037686039 0.45906955 6710886
-0.089852661 -0.037680149 0.45899779 6710886
-0.089010619 -0.037674263 0.45892608 6710886
-0.088170454 -0.03766907 0.45886281 6710886
-0.0873449 -0.037670072 0.45887506 6710886
-0.086519286 -0.037671078 0.45888728 6710886
-0.085693635 -0.037672084 0.45889953 6710886
-0.084867947 -0.03767309 0.45891178 6710886
-0.084042199 -0.037674088 0.45892397 6710886
-0.083216414 -0.037675094 0.45893621 6710886
-0.082390599 -0.037676103 0.45894849 6710886
-0.081564717 -0.037677102 0.45896068 6710886
-0.080738805 -0.037678108 0.45897293 6710886
-0.079912841 -0.03767911 0.45898515 6710886
-0.07908684 -0.037680116 0.4589974 6710886
-0.078260794 -0.037681121 0.45900965 6710886
-0.077434696 -0.037682127 0.45902187 6710886
-0.076608554 -0.037683126 0.45903406 6710886
-0.075782359 -0.037684124 0.45904621 6710886
-0.074956134 -0.037685126 0.45905843 6710886
-0.07412985 -0.037686124 0.45907059 6710886
-0.073303528 -0.037687123 0.45908275 6710886
-0.072477169 -0.037688129 0.45909497 6710886
-0.071650766 -0.037689131 0.45910719 6710886
-0.070824318 -0.037690137 0.45911944 6710886
-0.069997832 -0.037691139 0.45913166 6710886
-0.069171295 -0.037692141 0.45914388 6710886
-0.068344712 -0.037693147 0.4591561 6710886
-0.0675181 -0.037694152 0.45916837 6710886
-0.066691428 -0.037695155 0.45918059 6710886
-0.065864712 -0.037696157 0.45919278 6710886
-0.065037966 -0.037697166 0.45920506 6710886
-0.064211167 -0.037698168 0.45921728 6710886
-0.063384332 -0.037699174 0.45922956 6710886
-0.062557437 -0.03770018 0.45924178 6710886
-0.061730511 -0.037701186 0.45925403 6710886
-0.060903534 -0.037702188 0.45926625 6710886
-0.060076512 -0.03770319 0.45927846 6710886
-0.059249453 -0.0377042 0.45929074 6710886
-0.058422357 -0.037705209 0.45930305 6710886
-0.057595212 -0.037706215 0.45931533 6710886
-0.056768019 -0.037707224 0.45932761 6710886
-0.055940781 -0.03770823 0.45933986 6710886
-0.055113502 -0.03770924 0.45935214 6710886
-0.054286178 -0.037710246 0.45936441 6710886
-0.05345881 -0.037711255 0.45937669 6710886
-0.052631401 -0.037712261 0.45938897 6710886
-0.051803943 -0.037713271 0.45940125 6710886
-0.050976437 -0.037714273 0.45941347 6710886
-0.050148886 -0.037715279 0.45942572 6710886
-0.049321268 -0.037716266 0.45943773 6710886
-0.048493639 -0.037717275 0.45945004 6710886
-0.047665987 -0.037718304 0.45946255 6710886
-0.046838291 -0.037719332 0.4594751 6710886
-0.046089325 -0.037784941 0.46027431 6710886
-0.045434855 -0.037931852 0.46206388 6710886
-0.044775359 -0.038079981 0.46386829 6710886
-0.044110686 -0.038229261 0.46568674 6710886
-0.043605179 -0.038524963 0.46928883 6710886
-0.04366437 -0.039341167 0.47923133 6710886
-0.043726251 -0.040192816 0.48960567 6710886
-0.014157604 -0.036809772 0.44839534 6710886
-0.013348957 -0.036810759 0.44840738 6710886
-0.012540264 -0.036811743 0.44841936 6710886
-0.01173153 -0.03681273 0.4484314 6710886
-0.01092275 -0.036813714 0.44844338 6710886
-0.010113928 -0.036814697 0.44845536 6710886
-0.0093050636 -0.036815688 0.4484674 6710886
-0.008496155 -0.036816671 0.44847938 6710886
-0.0076872036 -0.036817659 0.44849142 6710886
-0.0068782084 -0.036818646 0.44850343 6710886
-0.0060691694 -0.036819629 0.44851542 6710886
-0.005260088 -0.036820617 0.44852746 6710886
-0.0044509624 -0.0368216 0.44853944 6710886
-0.0036417944 -0.036822587 0.44855148 6710886
-0.0028325827 -0.036823574 0.44856349 6710886
-0.0020233274 -0.036824558 0.44857547 6710886
-0.001214029 -0.036825545 0.44858751 6710886
-0.00040468716 -0.036826532 0.44859952 6710886
0.00040469802 -0.03682752 0.44861156 6710886
0.0012141265 -0.036828503 0.44862354 6710886
0.0020235984 -0.036829494 0.44863558 6710886
0.0028331138 -0.036830477 0.44864759 6710886
0.0036426722 -0.036831465 0.4486596 6710886
0.0044522746 -0.036832452 0.44867164 6710886
0.0052619195 -0.036833435 0.44868362 6710886
0.0060716071 -0.036834419 0.44869557 6710886
0.0068813381 -0.036835399 0.44870752 6710886
0.0076911128 -0.036836382 0.4487195 6710886
0.0085009299 -0.036837362 0.44873145 6710886
0.0093107903 -0.036838345 0.4487434 6710886
0.010120694 -0.036839325 0.44875535 6710886
0.010930641 -0.036840305 0.4487673 6710886
0.01174063 -0.036841288 0.44877926 6710886
0.012550662 -0.036842268 0.44879121 6710886
0.01336074 -0.036843251 0.44880319 6710886
0.014170859 -0.036844231 0.44881514 6710886
0.014981021 -0.036845215 0.44882709 6710886
0.015791226 -0.036846194 0.44883904 6710886
0.016601477 -0.036847178 0.44885102 6710886
0.017411768 -0.036848158 0.44886297 6710886
0.018222105 -0.036849145 0.44887498 6710886
0.019032482 -0.036850125 0.44888693 6710886
0.019842906 -0.036851108 0.44889891 6710886
0.020653369 -0.036852092 0.44891086 6710886
0.021463878 -0.036853075 0.44892284 6710886
0.022274429 -0.036854055 0.44893479 6710886
0.023085024 -0.036855038 0.44894677 6710886
0.02389566 -0.036856022 0.44895872 6710886
0.024706343 -0.036857005 0.44897071 6710886
0.025517067 -0.036857985 0.44898266 6710886
0.026327834 -0.036858968 0.44899464 6710886
0.027138643 -0.036859948 0.44900659 6710886
0.027949499 -0.036860932 0.44901857 6710886
0.028760396 -0.036861915 0.44903055 6710886
0.029571336 -0.036862899 0.4490425 6710886
0.030382318 -0.036863882 0.44905448 6710886
0.031193346 -0.036864866 0.44906646 6710886
0.032004416 -0.036865845 0.44907841 6710886
0.032815527 -0.036866829 0.44909039 6710886
0.033626687 -0.036867812 0.44910237 6710886
-0.11979733 -0.038490839 0.47940961 6710886
-0.11813048 -0.038231321 0.47617728 6710886
-0.1166017 -0.038013007 0.47345814 6710886
-0.11537142 -0.037889507 0.47191992 6710886
-0.11414912 -0.037766807 0.47039169 6710886
-0.11293494 -0.037644979 0.46887431 6710886
-0.11185269 -0.037565622 0.46788588 6710886
-0.11080104 -0.037495412 0.46701139 6710886
-0.10975332 -0.037425458 0.46614015 6710886
-0.10870942 -0.037355747 0.46527186 6710886
-0.10766932 -0.037286259 0.4644064 6710886
-0.10670456 -0.037241984 0.46385494 6710886
-0.1057517 -0.037201192 0.46334684 6710886
-0.10480082 -0.037160452 0.46283942 6710886
-0.10385204 -0.037119806 0.46233317 6710886
-0.10290532 -0.037079245 0.46182796 6710886
-0.10196067 -0.037038773 0.46132392 6710886
-0.10105157 -0.037010659 0.46097371 6710886
-0.10016293 -0.036989633 0.46071184 6710886
-0.099275313 -0.036968634 0.46045029 6710886
-0.098388754 -0.036947675 0.46018928 6710886
-0.097503193 -0.036926743 0.45992854 6710886
-0.096618637 -0.036905833 0.4596681 6710886
-0.095735081 -0.036884945 0.45940796 6710886
-0.094865762 -0.036869224 0.45921215 6710886
-0.094022557 -0.036863469 0.45914048 6710886
-0.093179621 -0.036857717 0.4590688 6710886
-0.09233693 -0.036851957 0.4589971 6710886
-0.091494493 -0.036846198 0.45892537 6710886
-0.090652332 -0.036840446 0.45885369 6710886
-0.089810424 -0.036834691 0.45878202 6710886
-0.088968784 -0.036828939 0.45871037 6710886
-0.088132493 -0.036825314 0.45866522 6710886
-0.087307289 -0.036826298 0.45867747 6710886
-0.086482026 -0.036827274 0.45868966 6710886
-0.085656732 -0.036828257 0.45870188 6710886
-0.084831394 -0.036829241 0.45871413 6710886
-0.084006004 -0.036830217 0.45872632 6710886
-0.083180577 -0.0368312 0.45873857 6710886
-0.082355112 -0.036832184 0.45875081 6710886
-0.081529588 -0.036833163 0.458763 6710886
-0.080704033 -0.036834147 0.45877525 6710886
-0.07987842 -0.036835127 0.45878744 6710886
-0.079052776 -0.03683611 0.45879969 6710886
-0.07822708 -0.036837094 0.45881194 6710886
-0.07740134 -0.03683807 0.45882413 6710886
-0.076575555 -0.036839049 0.45883632 6710886
-0.075749718 -0.036840029 0.45884851 6710886
-0.074923843 -0.036841005 0.45886067 6710886
-0.074097916 -0.036841981 0.45887282 6710886
-0.073271953 -0.036842961 0.45888501 6710886
-0.072445944 -0.036843937 0.45889717 6710886
-0.071619891 -0.036844913 0.45890936 6710886
-0.0707938 -0.036845896 0.45892161 6710886
-0.069967672 -0.03684688 0.45893383 6710886
-0.069141492 -0.03684786 0.45894605 6710886
-0.06831526 -0.036848839 0.45895824 6710886
-0.067488998 -0.036849823 0.45897049 6710886
-0.066662692 -0.036850803 0.45898271 6710886
-0.065836325 -0.036851782 0.4589949 6710886
-0.065009937 -0.036852766 0.45900717 6710886
-0.064183488 -0.036853746 0.45901936 6710886
-0.06335701 -0.036854733 0.45903164 6710886
-0.062530473 -0.036855709 0.45904383 6710886
-0.061703909 -0.036856696 0.45905611 6710886
-0.060877282 -0.036857676 0.4590683 6710886
-0.060050618 -0.036858656 0.45908052 6710886
-0.059223916 -0.036859639 0.45909277 6710886
-0.058397163 -0.036860619 0.45910498 6710886
-0.057570376 -0.036861606 0.45911726 6710886
-0.05674354 -0.036862593 0.45912954 6710886
-0.05591666 -0.036863577 0.45914179 6710886
-0.055089738 -0.03686456 0.45915407 6710886
-0.054262768 -0.036865544 0.45916632 6710886
-0.053435758 -0.036866531 0.4591786 6710886
-0.052608702 -0.036867518 0.45919088 6710886
-0.051781602 -0.036868501 0.45920312 6710886
-0.05095445 -0.036869481 0.45921534 6710886
-0.050127238 -0.036870446 0.45922738 6710886
-0.049300008 -0.036871433 0.45923966 6710886
-0.048472762 -0.036872443 0.45925224 6710886
-0.047645468 -0.036873449 0.45926476 6710886
-0.046987183 -0.037007604 0.46093568 6710886
-0.046335269 -0.037151702 0.46273044 6710886
-0.045678318 -0.037296977 0.46453986 6710886
-0.045016233 -0.037443407 0.4663637 6710886
-0.044348918 -0.037590988 0.46820182 6710886
-0.043759942 -0.037811987 0.47095442 6710886
-0.043822639 -0.03861599 0.48096839 6710886
-0.0438882 -0.039455049 0.49141902 6710886
-0.044771869 -0.041079342 0.51164985 6710886
-0.014959749 -0.035984263 0.4481898 6710886
-0.014151492 -0.035985224 0.44820178 6710886
-0.013343194 -0.035986189 0.44821379 6710886
-0.01253485 -0.03598715 0.44822577 6710886
-0.011726464 -0.035988115 0.44823778 6710886
-0.010918034 -0.035989076 0.44824976 6710886
-0.010109561 -0.035990037 0.44826174 6710886
-0.0093010459 -0.035991006 0.44827378 6710886
-0.0084924866 -0.035991967 0.44828576 6710886
-0.0076838839 -0.035992932 0.44829777 6710886
-0.0068752379 -0.035993893 0.44830975 6710886
-0.0060665486 -0.035994854 0.44832173 6710886
-0.0052578165 -0.035995822 0.44833377 6710886
-0.0044490406 -0.035996784 0.44834575 6710886
-0.0036402217 -0.035997748 0.44835776 6710886
-0.0028313592 -0.035998709 0.44836974 6710886
-0.0020224534 -0.035999671 0.44838172 6710886
-0.0012135047 -0.036000639 0.44839376 6710886
-0.00040451236 -0.0360016 0.44840574 6710886
0.00040452322 -0.036002565 0.44841778 6710886
0.001213602 -0.03600353 0.44842976 6710886
0.0020227244 -0.036004495 0.4484418 6710886
0.0028318898 -0.036005456 0.44845378 6710886
0.0036410985 -0.036006417 0.44846576 6710886
0.004450351 -0.036007386 0.4484778 6710886
0.0052596466 -0.036008351 0.44848981 6710886
0.0060689859 -0.036009315 0.44850186 6710886
0.0068783667 -0.036010273 0.44851378 6710886
0.0076877913 -0.036011234 0.44852573 6710886
0.0084972586 -0.036012191 0.44853768 6710886
0.0093067689 -0.036013149 0.4485496 6710886
0.010116323 -0.03601411 0.44856155 6710886
0.01092592 -0.036015067 0.4485735 6710886
0.011735559 -0.036016028 0.44858545 6710886
0.012545243 -0.036016989 0.4485974 6710886
0.013354969 -0.036017947 0.44860935 6710886
0.014164738 -0.036018908 0.4486213 6710886
0.01497455 -0.036019865 0.44863322 6710886
0.015784405 -0.036020823 0.44864517 6710886
0.016594304 -0.036021784 0.44865713 6710886
0.017404247 -0.036022741 0.44866908 6710886
0.018214233 -0.036023706 0.44868109 6710886
0.019024262 -0.036024667 0.44869304 6710886
0.019834334 -0.036025625 0.44870499 6710886
0.020644447 -0.036026586 0.44871694 6710886
0.021454604 -0.036027543 0.44872889 6710886
0.022264807 -0.036028504 0.44874084 6710886
0.023075052 -0.036029465 0.44875282 6710886
0.023885338 -0.036030427 0.44876477 6710886
0.024695668 -0.036031384 0.44877672 6710886
0.025506042 -0.036032345 0.44878867 6710886
0.026316458 -0.036033303 0.44880062 6710886
0.027126919 -0.036034267 0.4488126 6710886
0.027937422 -0.036035225 0.44882455 6710886
0.028747968 -0.036036186 0.44883651 6710886
0.029558556 -0.036037143 0.44884846 6710886
0.03036919 -0.036038104 0.44886044 6710886
0.031179866 -0.036039066 0.44887239 6710886
0.031990584 -0.036040027 0.44888434 6710886
0.032801349 -0.036040988 0.44889632 6710886
0.033612151 -0.036041945 0.44890827 6710886
-0.11955893 -0.037551001 0.47845557 6710886
-0.11789728 -0.037298415 0.47523725 6710886
-0.11646418 -0.037114959 0.47289976 6710886
-0.1152358 -0.036994517 0.47136518 6710886
-0.11401539 -0.036874868 0.46984065 6710886
-0.11281101 -0.036758643 0.46835977 6710886
-0.11175651 -0.036689874 0.46748355 6710886
-0.11070594 -0.036621358 0.46661055 6710886
-0.10965929 -0.0365531 0.46574083 6710886
-0.10861642 -0.036485054 0.46487382 6710886
-0.10758602 -0.03642017 0.46404713 6710886
-0.10663179 -0.036380257 0.46353859 6710886
-0.10567963 -0.036340427 0.46303108 6710886
-0.1047295 -0.036300663 0.46252441 6710886
-0.10378142 -0.036260977 0.46201879 6710886
-0.10283543 -0.036221385 0.46151432 6710886
-0.10189149 -0.036181875 0.4610109 6710886
-0.10099477 -0.036158618 0.46071458 6710886
-0.10010666 -0.036138088 0.46045297 6710886
-0.099219598 -0.036117595 0.46019185 6710886
-0.09833356 -0.036097128 0.45993111 6710886
-0.097448513 -0.036076684 0.4596706 6710886
-0.096564487 -0.036056265 0.45941046 6710886
-0.095681459 -0.036035873 0.45915061 6710886
-0.094821148 -0.036023755 0.45899621 6710886
-0.093978345 -0.036018133 0.45892456 6710886
-0.093135811 -0.036012512 0.45885298 6710886
-0.092293516 -0.036006887 0.4587813 6710886
-0.091451488 -0.036001265 0.45870966 6710886
-0.090609729 -0.035995644 0.45863804 6710886
-0.089768223 -0.035990022 0.45856643 6710886
-0.088926978 -0.035984404 0.45849484 6710886
-0.088094562 -0.035982285 0.45846784 6710886
-0.087269701 -0.035983242 0.45848 6710886
-0.08644481 -0.035984203 0.45849225 6710886
-0.085619867 -0.035985161 0.45850447 6710886
-0.084794872 -0.035986118 0.45851666 6710886
-0.083969846 -0.035987075 0.45852888 6710886
-0.083144769 -0.035988033 0.45854107 6710886
-0.082319647 -0.035988994 0.45855328 6710886
-0.081494495 -0.035989955 0.45856553 6710886
-0.080669284 -0.035990909 0.45857772 6710886
-0.079844035 -0.03599187 0.45858994 6710886
-0.079018742 -0.035992831 0.45860219 6710886
-0.078193404 -0.035993788 0.45861438 6710886
-0.077368021 -0.035994746 0.4586266 6710886
-0.076542586 -0.035995703 0.45863879 6710886
-0.075717099 -0.035996653 0.45865092 6710886
-0.074891582 -0.035997611 0.45866311 6710886
-0.074066013 -0.035998564 0.45867527 6710886
-0.073240399 -0.035999518 0.45868739 6710886
-0.072414748 -0.036000475 0.45869958 6710886
-0.071589045 -0.036001425 0.45871171 6710886
-0.070763312 -0.036002386 0.45872396 6710886
-0.069937535 -0.036003344 0.45873615 6710886
-0.069111712 -0.036004305 0.45874837 6710886
-0.068285838 -0.036005259 0.45876056 6710886
-0.067459933 -0.03600622 0.45877281 6710886
-0.066633977 -0.036007177 0.458785 6710886
-0.065807968 -0.036008134 0.45879719 6710886
-0.06498193 -0.036009096 0.45880944 6710886
-0.064155839 -0.036010053 0.45882162 6710886
-0.063329712 -0.036011014 0.45883387 6710886
-0.062503539 -0.036011972 0.45884606 6710886
-0.061677322 -0.036012933 0.45885831 6710886
-0.060851056 -0.03601389 0.45887053 6710886
-0.060024746 -0.036014847 0.45888272 6710886
-0.059198398 -0.036015809 0.45889497 6710886
-0.058372002 -0.03601677 0.45890719 6710886
-0.057545569 -0.036017731 0.45891944 6710886
-0.05671908 -0.036018685 0.45893162 6710886
-0.055892561 -0.036019649 0.4589439 6710886
-0.055065993 -0.03602061 0.45895615 6710886
-0.054239381 -0.036021575 0.45896843 6710886
-0.053412724 -0.036022536 0.45898068 6710886
-0.052586026 -0.036023498 0.45899293 6710886
-0.05175928 -0.036024459 0.45900518 6710886
-0.050932471 -0.036025405 0.45901725 6710886
-0.050105639 -0.03602637 0.45902953 6710886
-0.049278792 -0.036027353 0.45904204 6710886
-0.048531923 -0.036087841 0.45981276 6710886
-0.047887605 -0.036228016 0.46159878 6710886
-0.047238272 -0.03636929 0.46339884 6710886
-0.046583902 -0.036511708 0.46521345 6710886
-0.045924406 -0.036655262 0.46704254 6710886
-0.04525971 -0.036799952 0.46888611 6710886
-0.044589736 -0.036945783 0.47074419 6710886
-0.043915812 -0.037093937 0.47263193 6710886
-0.043982074 -0.037885547 0.48271823 6710886
-0.045659263 -0.040124808 0.51124972 6710886
-0.044755977 -0.040141959 0.51146823 6710886
-0.043851912 -0.040159121 0.51168692 6710886
-0.042947076 -0.040176298 0.51190579 6710886
-0.042041473 -0.040193494 0.5121249 6710886
-0.041135084 -0.040210702 0.51234412 6710886
-0.014953295 -0.035160448 0.44799641 6710886
-0.014145385 -0.035161387 0.44800836 6710886
-0.013337435 -0.03516233 0.44802037 6710886
-0.012529441 -0.035163268 0.44803235 6710886
-0.011721404 -0.035164211 0.44804436 6710886
-0.010913323 -0.03516515 0.44805631 6710886
-0.010105198 -0.035166092 0.44806829 6710886
-0.0092970319 -0.035167035 0.4480803 6710886
-0.0084888209 -0.03516797 0.44809225 6710886
-0.0076805679 -0.035168916 0.44810429 6710886
-0.0068722703 -0.035169855 0.44811624 6710886
-0.0060639302 -0.035170794 0.44812822 6710886
-0.0052555469 -0.035171736 0.44814023 6710886
-0.0044471202 -0.035172679 0.44815221 6710886
-0.0036386503 -0.035173621 0.44816422 6710886
-0.002830137 -0.03517456 0.44817621 6710886
-0.0020215802 -0.035175499 0.44818816 6710886
-0.0012129808 -0.035176445 0.4482002 6710886
-0.00040433774 -0.035177384 0.44821218 6710886
0.00040434857 -0.035178326 0.44822419 6710886
0.0012130782 -0.035179265 0.44823617 6710886
0.002021851 -0.035180207 0.44824818 6710886
0.0028306672 -0.03518115 0.44826016 6710886
0.0036395264 -0.035182089 0.44827214 6710886
0.0044484297 -0.035183035 0.44828418 6710886
0.0052573751 -0.035183974 0.44829613 6710886
0.0060663652 -0.035184916 0.44830817 6710886
0.0068753976 -0.035185859 0.44832015 6710886
0.0076844729 -0.035186797 0.44833213 6710886
0.0084935911 -0.035187732 0.44834405 6710886
0.0093027521 -0.035188671 0.448356 6710886
0.010111956 -0.035189606 0.44836792 6710886
0.010921204 -0.035190545 0.44837987 6710886
0.011730493 -0.03519148 0.4483918 6710886
0.012539827 -0.035192419 0.44840375 6710886
0.013349203 -0.035193354 0.44841567 6710886
0.014158623 -0.035194293 0.44842762 6710886
0.014968085 -0.035195228 0.44843954 6710886
0.015777592 -0.035196166 0.44845149 6710886
0.01658714 -0.035197102 0.44846344 6710886
0.017396731 -0.03519804 0.44847536 6710886
0.018206369 -0.035198983 0.44848737 6710886
0.019016048 -0.035199918 0.44849929 6710886
0.01982577 -0.035200857 0.44851124 6710886
0.020635534 -0.035201792 0.44852319 6710886
0.02144534 -0.03520273 0.44853511 6710886
0.022255192 -0.035203665 0.44854707 6710886
0.023065086 -0.035204604 0.44855902 6710886
0.023875022 -0.035205543 0.44857097 6710886
0.024685003 -0.035206482 0.44858292 6710886
0.025495026 -0.035207417 0.44859484 6710886
0.026305092 -0.035208356 0.44860679 6710886
0.027115202 -0.035209291 0.44861874 6710886
0.027925355 -0.035210229 0.44863069 6710886
0.02873555 -0.035211168 0.44864264 6710886
0.02954579 -0.035212107 0.44865459 6710886
0.030356072 -0.035213042 0.44866654 6710886
0.031166397 -0.035213981 0.44867849 6710886
0.031976767 -0.03521492 0.44869044 6710886
0.032787178 -0.035215858 0.44870239 6710886
0.033597633 -0.035216797 0.44871435 6710886
-0.11932157 -0.036614925 0.47750571 6710886
-0.117665 -0.036369182 0.47430092 6710886
-0.116327 -0.036219031 0.47234276 6710886
-0.1151005 -0.036101632 0.47081172 6710886
-0.11388204 -0.03598503 0.46929109 6710886
-0.1127139 -0.035882704 0.46795663 6710886
-0.1116605 -0.03581563 0.4670819 6710886
-0.11061101 -0.035748806 0.46621042 6710886
-0.10956543 -0.035682227 0.46534216 6710886
-0.10852357 -0.035615843 0.46447644 6710886
-0.10751261 -0.035558645 0.46373048 6710886
-0.10655911 -0.0355197 0.46322262 6710886
-0.10560767 -0.035480838 0.4627158 6710886
-0.10465825 -0.035442036 0.46220976 6710886
-0.10371091 -0.035403322 0.46170488 6710886
-0.10276563 -0.035364691 0.46120107 6710886
-0.10182661 -0.035327598 0.46071735 6710886
-0.10093803 -0.035307541 0.46045578 6710886
-0.10005046 -0.035287503 0.46019447 6710886
-0.099163927 -0.035267506 0.45993364 6710886
-0.098278411 -0.035247531 0.45967317 6710886
-0.097393893 -0.035227578 0.45941296 6710886
-0.096510395 -0.035207655 0.45915312 6710886
-0.095627882 -0.035187751 0.45889354 6710886
-0.094776571 -0.035179079 0.45878044 6710886
-0.093934163 -0.035173588 0.45870882 6710886
-0.093092039 -0.035168104 0.45863733 6710886
-0.092250153 -0.035162613 0.45856574 6710886
-0.091408528 -0.035157125 0.45849416 6710886
-0.090567164 -0.035151638 0.4584226 6710886
-0.089726061 -0.035146151 0.45835105 6710886
-0.088885225 -0.035140671 0.45827955 6710886
-0.088056661 -0.035139982 0.45827058 6710886
-0.08723215 -0.035140913 0.45828274 6710886
-0.086407609 -0.035141852 0.45829496 6710886
-0.085583024 -0.035142787 0.45830718 6710886
-0.084758386 -0.035143722 0.45831934 6710886
-0.083933711 -0.035144657 0.45833156 6710886
-0.083108991 -0.035145592 0.45834374 6710886
-0.082284227 -0.035146527 0.45835596 6710886
-0.081459418 -0.035147466 0.45836818 6710886
-0.080634557 -0.035148397 0.45838034 6710886
-0.079809673 -0.035149336 0.45839259 6710886
-0.078984737 -0.035150275 0.45840481 6710886
-0.078159742 -0.035151206 0.45841697 6710886
-0.077334717 -0.035152145 0.45842919 6710886
-0.07650964 -0.03515308 0.45844138 6710886
-0.075684525 -0.035154011 0.45845357 6710886
-0.074859351 -0.035154942 0.4584657 6710886
-0.074034125 -0.03515587 0.4584778 6710886
-0.073208876 -0.035156805 0.45848998 6710886
-0.072383575 -0.035157736 0.45850211 6710886
-0.071558237 -0.035158671 0.4585143 6710886
-0.070732847 -0.035159603 0.45852646 6710886
-0.069907419 -0.035160538 0.45853865 6710886
-0.069081955 -0.035161473 0.45855087 6710886
-0.068256438 -0.035162408 0.45856303 6710886
-0.067430884 -0.035163347 0.45857528 6710886
-0.066605285 -0.035164282 0.45858747 6710886
-0.065779641 -0.035165217 0.45859966 6710886
-0.064953953 -0.035166152 0.45861188 6710886
-0.06412822 -0.035167087 0.45862406 6710886
-0.06330245 -0.035168026 0.45863631 6710886
-0.06247662 -0.035168957 0.45864847 6710886
-0.06165076 -0.035169896 0.45866072 6710886
-0.060824852 -0.035170831 0.45867291 6710886
-0.059998896 -0.035171766 0.4586851 6710886
-0.059172906 -0.035172705 0.45869735 6710886
-0.058346864 -0.03517364 0.45870954 6710886
-0.057520784 -0.035174578 0.45872179 6710886
-0.056694653 -0.035175513 0.45873398 6710886
-0.055868477 -0.035176449 0.45874617 6710886
-0.055042274 -0.035177395 0.45875847 6710886
-0.05421602 -0.035178334 0.45877072 6710886
-0.053389717 -0.035179272 0.45878297 6710886
-0.052563373 -0.035180211 0.45879522 6710886
-0.051736977 -0.035181142 0.45880738 6710886
-0.050910532 -0.035182074 0.45881954 6710886
-0.050084081 -0.035183035 0.45883203 6710886
-0.049432386 -0.035308845 0.46047279 6710886
-0.048790641 -0.035446193 0.46226397 6710886
-0.048143886 -0.03558461 0.46406913 6710886
-0.04749212 -0.035724163 0.46588904 6710886
-0.046835236 -0.035864819 0.4677234 6710886
-0.046173159 -0.036006592 0.46957231 6710886
-0.045505837 -0.036149498 0.47143596 6710886
-0.044833183 -0.036293529 0.47331434 6710886
-0.044155162 -0.036438726 0.47520787 6710886
-0.044142671 -0.037149772 0.48448083 6710886
-0.045643065 -0.039188489 0.51106834 6710886
-0.044740088 -0.039205231 0.51128668 6710886
-0.043836344 -0.039221991 0.51150525 6710886
-0.042931821 -0.039238762 0.51172394 6710886
-0.042026527 -0.039255548 0.51194286 6710886
-0.041120458 -0.039272349 0.51216197 6710886
-0.040213615 -0.039289165 0.51238126 6710886
-0.039305992 -0.039305992 0.51260072 6710886
-0.038397592 -0.039322834 0.51282036 6710886
-0.037488416 -0.039339695 0.51304024 6710886
-0.036578458 -0.039356571 0.5132603 6710886
-0.014946844 -0.034337346 0.44780317 6710886
-0.014139284 -0.034338262 0.44781512 6710886
-0.013331682 -0.034339182 0.44782713 6710886
-0.012524036 -0.034340099 0.44783908 6710886
-0.011716347 -0.034341019 0.44785106 6710886
-0.010908615 -0.034341935 0.44786304 6710886
-0.010100839 -0.034342851 0.44787499 6710886
-0.0092930207 -0.034343775 0.447887 6710886
-0.0084851589 -0.034344692 0.44789895 6710886
-0.0076772543 -0.034345612 0.44791096 6710886
-0.0068693054 -0.034346528 0.44792292 6710886
-0.0060613137 -0.034347445 0.44793487 6710886
-0.0052532791 -0.034348365 0.44794688 6710886
-0.0044452013 -0.034349281 0.44795883 6710886
-0.0036370803 -0.034350201 0.44797084 6710886
-0.0028289158 -0.034351122 0.44798282 6710886
-0.0020207081 -0.034352038 0.44799477 6710886
-0.0012124573 -0.034352958 0.44800678 6710886
-0.00040416326 -0.034353878 0.44801876 6710886
0.00040417409 -0.034354798 0.44803077 6710886
0.0012125546 -0.034355715 0.44804272 6710886
0.0020209786 -0.034356635 0.44805473 6710886
0.0028294455 -0.034357555 0.44806671 6710886
0.0036379555 -0.034358472 0.44807866 6710886
0.0044465093 -0.034359392 0.44809067 6710886
0.0052551064 -0.034360308 0.44810265 6710886
0.0060637468 -0.034361232 0.44811466 6710886
0.00687243 -0.034362148 0.44812664 6710886
0.007681156 -0.034363065 0.44813859 6710886
0.0084899263 -0.034363989 0.44815063 6710886
0.0092987381 -0.034364901 0.44816256 6710886
0.010107594 -0.034365818 0.44817448 6710886
0.010916491 -0.034366731 0.4481864 6710886
0.011725432 -0.034367643 0.44819832 6710886
0.012534415 -0.03436856 0.44821024 6710886
0.013343443 -0.034369476 0.44822219 6710886
0.014152514 -0.034370389 0.44823411 6710886
0.014961626 -0.034371305 0.44824603 6710886
0.015770782 -0.034372218 0.44825795 6710886
0.016579982 -0.034373131 0.44826987 6710886
0.017389225 -0.034374047 0.44828182 6710886
0.018198512 -0.034374967 0.44829381 6710886
0.019007839 -0.03437588 0.44830573 6710886
0.019817211 -0.034376796 0.44831765 6710886
0.020626627 -0.034377713 0.4483296 6710886
0.021436084 -0.034378625 0.44834152 6710886
0.022245586 -0.034379542 0.44835347 6710886
0.023055129 -0.034380455 0.44836539 6710886
0.023864718 -0.034381371 0.44837734 6710886
0.024674347 -0.034382287 0.44838926 6710886
0.025484022 -0.034383204 0.44840121 6710886
0.026293736 -0.034384117 0.44841313 6710886
0.027103497 -0.034385033 0.44842508 6710886
0.027913298 -0.034385949 0.44843701 6710886
0.028723145 -0.034386862 0.44844896 6710886
0.029533032 -0.034387778 0.44846088 6710886
0.030342966 -0.034388695 0.44847283 6710886
0.031152941 -0.034389611 0.44848478 6710886
0.031962957 -0.034390524 0.4484967 6710886
0.032773022 -0.03439144 0.44850865 6710886
0.033583127 -0.034392357 0.4485206 6710886
-0.12141113 -0.036118723 0.48238486 6710886
-0.11908536 -0.035682619 0.47656044 6710886
-0.11743362 -0.0354436 0.47336823 6710886
-0.11619014 -0.035325207 0.47178701 6710886
-0.11496551 -0.03521084 0.47025958 6710886
-0.11374898 -0.035097271 0.46874282 6710886
-0.11261697 -0.03500827 0.46755418 6710886
-0.11156464 -0.034942888 0.46668097 6710886
-0.11051624 -0.034877747 0.46581095 6710886
-0.10947168 -0.034812834 0.46494401 6710886
-0.10843088 -0.034748122 0.46407974 6710886
-0.1074393 -0.034698296 0.46341431 6710886
-0.10648653 -0.034660321 0.46290714 6710886
