# .PCD v0.7 - Point Cloud Data file format
VERSION 0.7
FIELDS x y z rgb
SIZE 4 4 4 4
TYPE F F F U
COUNT 1 1 1 1
WIDTH 1118
HEIGHT 1
VIEWPOINT 0 0 0 1 0 0 0
POINTS 1118
DATA ascii
-0.012679243 0.091377996 0.48465726 6710886
-0.011786978 0.091239937 0.48392501 6710886
-0.010898801 0.09111397 0.48325691 6710886
-0.010017119 0.091025129 0.48278567 6710886
-0.0091371546 0.090936445 0.48231533 6710886
-0.0082589034 0.090847939 0.48184589 6710886
-0.0073833261 0.090771481 0.48144037 6710886
-0.0065111187 0.090721585 0.48117575 6710886
-0.0056398711 0.09067177 0.48091152 6710886
-0.0047695786 0.090621993 0.4806475 6710886
-0.0039002441 0.090572335 0.48038414 6710886
-0.0030329837 0.090556227 0.4802987 6710886
-0.0021660319 0.090540126 0.48021331 6710886
-0.0012993881 0.09052404 0.48012799 6710886
-0.0004330524 0.090507947 0.48004264 6710886
0.0004330524 0.090507947 0.48004264 6710886
0.0012993881 0.09052404 0.48012799 6710886
0.0021660319 0.090540126 0.48021331 6710886
0.0030329837 0.090556227 0.4802987 6710886
0.0039002411 0.090572268 0.48038375 6710886
0.0047695786 0.090621993 0.4806475 6710886
0.0056398702 0.090671763 0.48091146 6710886
0.0065111192 0.090721592 0.48117578 6710886
0.0073833261 0.090771481 0.48144037 6710886
0.0082589015 0.090847917 0.4818458 6710886
0.0091371536 0.090936437 0.48231527 6710886
0.010017117 0.091025114 0.48278561 6710886
0.0108988 0.091113962 0.48325685 6710886
0.011786976 0.091239922 0.48392493 6710886
0.012679243 0.091377988 0.48465723 6710886
0.013574215 0.09151648 0.48539174 6710886
0.014475954 0.091681041 0.48626456 6710886
0.015388388 0.091890663 0.48737636 6710886
0.016305005 0.092101246 0.48849329 6710886
0.017240485 0.09239132 0.49003181 6710886
0.018190341 0.09272638 0.49180889 6710886
0.019189561 0.09327019 0.49469322 6710886
0.021531124 0.10000011 0.53038782 10197915
0.022488061 0.10000011 0.53038782 10197915
0.023445001 0.10000011 0.53038782 10197915
0.024401939 0.10000011 0.53038782 10197915
0.025358878 0.10000011 0.53038782 10197915
0.026315818 0.10000011 0.53038782 10197915
0.027272755 0.10000011 0.53038782 10197915
0.028229695 0.10000011 0.53038782 10197915
0.029186632 0.10000011 0.53038782 10197915
0.030143572 0.10000011 0.53038782 10197915
0.031100512 0.10000011 0.53038782 10197915
0.032057449 0.10000011 0.53038782 10197915
0.033014387 0.10000011 0.53038782 10197915
0.033971328 0.10000011 0.53038782 10197915
0.034928266 0.10000011 0.53038782 10197915
0.035885204 0.10000011 0.53038782 10197915
0.036842145 0.10000011 0.53038782 10197915
0.037799083 0.10000011 0.53038782 10197915
0.03875602 0.10000011 0.53038782 10197915
0.039712962 0.10000011 0.53038782 10197915
0.040669899 0.10000011 0.53038782 10197915
0.041626837 0.10000011 0.53038782 10197915
0.042583775 0.10000011 0.53038782 10197915
0.043540716 0.10000011 0.53038782 10197915
0.044497654 0.10000011 0.53038782 10197915
0.045454592 0.10000011 0.53038782 10197915
0.046411533 0.10000011 0.53038782 10197915
0.047368471 0.10000011 0.53038782 10197915
0.048325408 0.10000011 0.53038782 10197915
0.04928235 0.10000011 0.53038782 10197915
0.050239287 0.10000011 0.53038782 10197915
0.051196225 0.10000011 0.53038782 10197915
0.052153166 0.10000011 0.53038782 10197915
0.053110104 0.10000011 0.53038782 10197915
0.054067042 0.10000011 0.53038782 10197915
0.055023979 0.10000011 0.53038782 10197915
0.055980921 0.10000011 0.53038782 10197915
0.056937858 0.10000011 0.53038782 10197915
0.057894796 0.10000011 0.53038782 10197915
0.058851738 0.10000011 0.53038782 10197915
0.059808675 0.10000011 0.53038782 10197915
0.060765613 0.10000011 0.53038782 10197915
0.061722554 0.10000011 0.53038782 10197915
0.062679492 0.10000011 0.53038782 10197915
0.06363643 0.10000011 0.53038782 10197915
0.064593367 0.10000011 0.53038782 10197915
0.06555029 0.10000008 0.5303877 10197915
0.066507235 0.10000008 0.5303877 10197915
0.067464173 0.10000008 0.5303877 10197915
0.068421111 0.10000008 0.5303877 10197915
0.069378048 0.10000008 0.5303877 10197915
0.070334986 0.10000008 0.5303877 10197915
0.071291924 0.10000008 0.5303877 10197915
0.072248861 0.10000008 0.5303877 10197915
0.073205799 0.10000008 0.5303877 10197915
0.074162744 0.10000008 0.5303877 10197915
0.075119682 0.10000008 0.5303877 10197915
0.076076619 0.10000008 0.5303877 10197915
0.077033557 0.10000008 0.5303877 10197915
0.077990495 0.10000008 0.5303877 10197915
0.078947432 0.10000008 0.5303877 10197915
0.07990437 0.10000008 0.5303877 10197915
0.080861308 0.10000008 0.5303877 10197915
0.081818245 0.10000008 0.5303877 10197915
0.08277519 0.10000008 0.5303877 10197915
0.083732128 0.10000008 0.5303877 10197915
0.084689066 0.10000008 0.5303877 10197915
0.085646003 0.10000008 0.5303877 10197915
0.086602941 0.10000008 0.5303877 10197915
0.087559879 0.10000008 0.5303877 10197915
0.088516816 0.10000008 0.5303877 10197915
0.089473754 0.10000008 0.5303877 10197915
0.090430699 0.10000008 0.5303877 10197915
0.091387637 0.10000008 0.5303877 10197915
0.092344575 0.10000008 0.5303877 10197915
0.093301512 0.10000008 0.5303877 10197915
0.09425845 0.10000008 0.5303877 10197915
0.095215388 0.10000008 0.5303877 10197915
0.096172325 0.10000008 0.5303877 10197915
0.097129263 0.10000008 0.5303877 10197915
0.098086208 0.10000008 0.5303877 10197915
0.099043146 0.10000008 0.5303877 10197915
0.10000008 0.10000008 0.5303877 10197915
0.10095702 0.10000008 0.5303877 10197915
0.10191396 0.10000008 0.5303877 10197915
0.1028709 0.10000008 0.5303877 10197915
0.10382783 0.10000008 0.5303877 10197915
0.10478477 0.10000008 0.5303877 10197915
0.10574172 0.10000008 0.5303877 10197915
0.10669865 0.10000008 0.5303877 10197915
0.10765559 0.10000008 0.5303877 10197915
0.10861253 0.10000008 0.5303877 10197915
0.10956947 0.10000008 0.5303877 10197915
0.11052641 0.10000008 0.5303877 10197915
0.11148334 0.10000008 0.5303877 10197915
0.11244028 0.10000008 0.5303877 10197915
0.11339723 0.10000008 0.5303877 10197915
0.11435416 0.10000008 0.5303877 10197915
0.1153111 0.10000008 0.5303877 10197915
0.11626804 0.10000008 0.5303877 10197915
0.11722498 0.10000008 0.5303877 10197915
0.11818191 0.10000008 0.5303877 10197915
0.11913885 0.10000008 0.5303877 10197915
0.12009579 0.10000008 0.5303877 10197915
0.12105273 0.10000008 0.5303877 10197915
0.12200967 0.10000008 0.5303877 10197915
0.12296661 0.10000008 0.5303877 10197915
0.12392355 0.10000008 0.5303877 10197915
0.12488049 0.10000008 0.5303877 10197915
0.12583743 0.10000008 0.5303877 10197915
0.12679437 0.10000008 0.5303877 10197915
0.12775131 0.10000008 0.5303877 10197915
0.12870824 0.10000008 0.5303877 10197915
0.12966518 0.10000008 0.5303877 10197915
0.13062212 0.10000008 0.5303877 10197915
0.13157906 0.10000008 0.5303877 10197915
0.13253599 0.10000008 0.5303877 10197915
0.13349293 0.10000008 0.5303877 10197915
0.13444987 0.10000008 0.5303877 10197915
0.13540681 0.10000008 0.5303877 10197915
0.13636374 0.10000008 0.5303877 10197915
0.13732068 0.10000008 0.5303877 10197915
0.13827762 0.10000008 0.5303877 10197915
0.13923456 0.10000008 0.5303877 10197915
0.1401915 0.10000008 0.5303877 10197915
0.14114845 0.10000008 0.5303877 10197915
0.14210539 0.10000008 0.5303877 10197915
0.14306232 0.10000008 0.5303877 10197915
0.14401926 0.10000008 0.5303877 10197915
0.1449762 0.10000008 0.5303877 10197915
0.14593314 0.10000008 0.5303877 10197915
0.14689007 0.10000008 0.5303877 10197915
0.14784701 0.10000008 0.5303877 10197915
0.14880395 0.10000008 0.5303877 10197915
0.14976089 0.10000008 0.5303877 10197915
0.15071782 0.10000008 0.5303877 10197915
0.15167476 0.10000008 0.5303877 10197915
0.1526317 0.10000008 0.5303877 10197915
0.15358864 0.10000008 0.5303877 10197915
0.15454558 0.10000008 0.5303877 10197915
0.15550251 0.10000008 0.5303877 10197915
0.15645947 0.10000008 0.5303877 10197915
0.1574164 0.10000008 0.5303877 10197915
0.15837334 0.10000008 0.5303877 10197915
0.15933028 0.10000008 0.5303877 10197915
0.16028722 0.10000008 0.5303877 10197915
0.16124415 0.10000008 0.5303877 10197915
0.16220109 0.10000008 0.5303877 10197915
0.16315803 0.10000008 0.5303877 10197915
0.16411497 0.10000008 0.5303877 10197915
0.1650719 0.10000008 0.5303877 10197915
0.16602884 0.10000008 0.5303877 10197915
0.16698578 0.10000008 0.5303877 10197915
0.16794272 0.10000008 0.5303877 10197915
0.16889966 0.10000008 0.5303877 10197915
0.16985659 0.10000008 0.5303877 10197915
0.17081353 0.10000008 0.5303877 10197915
0.17177044 0.10000006 0.53038758 10197915
0.17272738 0.10000006 0.53038758 10197915
0.17368431 0.10000006 0.53038758 10197915
0.17464125 0.10000006 0.53038758 10197915
0.17559819 0.10000006 0.53038758 10197915
0.17655513 0.10000006 0.53038758 10197915
0.17751206 0.10000006 0.53038758 10197915
0.178469 0.10000006 0.53038758 10197915
0.17942594 0.10000006 0.53038758 10197915
0.18038288 0.10000006 0.53038758 10197915
0.18133982 0.10000006 0.53038758 10197915
0.18229675 0.10000006 0.53038758 10197915
0.18325369 0.10000006 0.53038758 10197915
0.18421064 0.10000006 0.53038758 10197915
0.18516758 0.10000006 0.53038758 10197915
0.18612452 0.10000006 0.53038758 10197915
0.18708146 0.10000006 0.53038758 10197915
0.18803839 0.10000006 0.53038758 10197915
0.18899533 0.10000006 0.53038758 10197915
0.18995227 0.10000006 0.53038758 10197915
0.19090921 0.10000006 0.53038758 10197915
0.19186614 0.10000006 0.53038758 10197915
0.19282308 0.10000006 0.53038758 10197915
0.19378002 0.10000006 0.53038758 10197915
0.19473696 0.10000006 0.53038758 10197915
0.1956939 0.10000006 0.53038758 10197915
0.19665083 0.10000006 0.53038758 10197915
0.19760777 0.10000006 0.53038758 10197915
0.19856471 0.10000006 0.53038758 10197915
0.19952165 0.10000006 0.53038758 10197915
-0.19952628 0.10000011 0.52536047 10197915
-0.19857842 0.10000011 0.52536047 10197915
-0.19763054 0.10000011 0.52536047 10197915
-0.19668268 0.10000011 0.52536047 10197915
-0.19573481 0.10000011 0.52536047 10197915
-0.19478694 0.10000011 0.52536047 10197915
-0.19383907 0.10000011 0.52536047 10197915
-0.19289121 0.10000011 0.52536047 10197915
-0.19194333 0.10000011 0.52536047 10197915
-0.19099547 0.10000011 0.52536047 10197915
-0.19004759 0.10000011 0.52536047 10197915
-0.18909973 0.10000011 0.52536047 10197915
-0.18815187 0.10000011 0.52536047 10197915
-0.18720399 0.10000011 0.52536047 10197915
-0.18625613 0.10000011 0.52536047 10197915
-0.18530826 0.10000011 0.52536047 10197915
-0.18436038 0.10000011 0.52536047 10197915
-0.18341252 0.10000011 0.52536047 10197915
-0.18246466 0.10000011 0.52536047 10197915
-0.18151678 0.10000011 0.52536047 10197915
-0.18056892 0.10000011 0.52536047 10197915
-0.17962104 0.10000011 0.52536047 10197915
-0.17867318 0.10000011 0.52536047 10197915
-0.17772532 0.10000011 0.52536047 10197915
-0.17677744 0.10000011 0.52536047 10197915
-0.17582957 0.10000011 0.52536047 10197915
-0.17488171 0.10000011 0.52536047 10197915
-0.17393383 0.10000011 0.52536047 10197915
-0.17298597 0.10000011 0.52536047 10197915
-0.17203811 0.10000011 0.52536047 10197915
-0.17109023 0.10000011 0.52536047 10197915
-0.17014237 0.10000011 0.52536047 10197915
-0.16919449 0.10000011 0.52536047 10197915
-0.16824663 0.10000011 0.52536047 10197915
-0.16729876 0.10000011 0.52536047 10197915
-0.16635089 0.10000011 0.52536047 10197915
-0.16540302 0.10000011 0.52536047 10197915
-0.16445516 0.10000011 0.52536047 10197915
-0.16350728 0.10000011 0.52536047 10197915
-0.16255942 0.10000011 0.52536047 10197915
-0.16161154 0.10000011 0.52536047 10197915
-0.16066368 0.10000011 0.52536047 10197915
-0.15971582 0.10000011 0.52536047 10197915
-0.15876794 0.10000011 0.52536047 10197915
-0.15782008 0.10000011 0.52536047 10197915
-0.15687221 0.10000011 0.52536047 10197915
-0.15592434 0.10000011 0.52536047 10197915
-0.15497647 0.10000011 0.52536047 10197915
-0.15402861 0.10000011 0.52536047 10197915
-0.15308073 0.10000011 0.52536047 10197915
-0.15213287 0.10000011 0.52536047 10197915
-0.15118499 0.10000011 0.52536047 10197915
-0.15023713 0.10000011 0.52536047 10197915
-0.14928927 0.10000011 0.52536047 10197915
-0.14834139 0.10000011 0.52536047 10197915
-0.14739352 0.10000011 0.52536047 10197915
-0.14644566 0.10000011 0.52536047 10197915
-0.14549778 0.10000011 0.52536047 10197915
-0.14454992 0.10000011 0.52536047 10197915
-0.14360206 0.10000011 0.52536047 10197915
-0.14265418 0.10000011 0.52536047 10197915
-0.14170632 0.10000011 0.52536047 10197915
-0.14075844 0.10000011 0.52536047 10197915
-0.13981058 0.10000011 0.52536047 10197915
-0.13886271 0.10000011 0.52536047 10197915
-0.13791484 0.10000011 0.52536047 10197915
-0.13696697 0.10000011 0.52536047 10197915
-0.13601911 0.10000011 0.52536047 10197915
-0.13507123 0.10000011 0.52536047 10197915
-0.13412337 0.10000011 0.52536047 10197915
-0.13317549 0.10000011 0.52536047 10197915
-0.13222763 0.10000011 0.52536047 10197915
-0.13127977 0.10000011 0.52536047 10197915
-0.13033189 0.10000011 0.52536047 10197915
-0.12938403 0.10000011 0.52536047 10197915
-0.12843616 0.10000011 0.52536047 10197915
-0.12748829 0.10000011 0.52536047 10197915
-0.12654042 0.10000011 0.52536047 10197915
-0.12559256 0.10000011 0.52536047 10197915
-0.12464468 0.10000011 0.52536047 10197915
-0.12369682 0.10000011 0.52536047 10197915
-0.12274895 0.10000011 0.52536047 10197915
-0.12180108 0.10000011 0.52536047 10197915
-0.12085321 0.10000011 0.52536047 10197915
-0.11990532 0.10000008 0.52536035 10197915
-0.11895745 0.10000008 0.52536035 10197915
-0.11800958 0.10000008 0.52536035 10197915
-0.11706171 0.10000008 0.52536035 10197915
-0.11611384 0.10000008 0.52536035 10197915
-0.11516598 0.10000008 0.52536035 10197915
-0.11421811 0.10000008 0.52536035 10197915
-0.11327024 0.10000008 0.52536035 10197915
-0.11232237 0.10000008 0.52536035 10197915
-0.1113745 0.10000008 0.52536035 10197915
-0.11042663 0.10000008 0.52536035 10197915
-0.10947876 0.10000008 0.52536035 10197915
-0.1085309 0.10000008 0.52536035 10197915
-0.10758303 0.10000008 0.52536035 10197915
-0.10663516 0.10000008 0.52536035 10197915
-0.10568729 0.10000008 0.52536035 10197915
-0.10473943 0.10000008 0.52536035 10197915
-0.10379156 0.10000008 0.52536035 10197915
-0.10284369 0.10000008 0.52536035 10197915
-0.10189582 0.10000008 0.52536035 10197915
-0.10094795 0.10000008 0.52536035 10197915
-0.10000008 0.10000008 0.52536035 10197915
-0.099052221 0.10000008 0.52536035 10197915
-0.09810435 0.10000008 0.52536035 10197915
-0.09715648 0.10000008 0.52536035 10197915
-0.09620861 0.10000008 0.52536035 10197915
-0.095260747 0.10000008 0.52536035 10197915
-0.094312876 0.10000008 0.52536035 10197915
-0.093365006 0.10000008 0.52536035 10197915
-0.092417143 0.10000008 0.52536035 10197915
-0.091469273 0.10000008 0.52536035 10197915
-0.090521403 0.10000008 0.52536035 10197915
-0.08957354 0.10000008 0.52536035 10197915
-0.088625669 0.10000008 0.52536035 10197915
-0.087677799 0.10000008 0.52536035 10197915
-0.086729929 0.10000008 0.52536035 10197915
-0.085782066 0.10000008 0.52536035 10197915
-0.084834196 0.10000008 0.52536035 10197915
-0.083886325 0.10000008 0.52536035 10197915
-0.082938462 0.10000008 0.52536035 10197915
-0.081990592 0.10000008 0.52536035 10197915
-0.081042722 0.10000008 0.52536035 10197915
-0.080094852 0.10000008 0.52536035 10197915
-0.079146989 0.10000008 0.52536035 10197915
-0.078199118 0.10000008 0.52536035 10197915
-0.077251248 0.10000008 0.52536035 10197915
-0.076303385 0.10000008 0.52536035 10197915
-0.075355515 0.10000008 0.52536035 10197915
-0.074407645 0.10000008 0.52536035 10197915
-0.073459782 0.10000008 0.52536035 10197915
-0.072511911 0.10000008 0.52536035 10197915
-0.071564041 0.10000008 0.52536035 10197915
-0.070616171 0.10000008 0.52536035 10197915
-0.069668308 0.10000008 0.52536035 10197915
-0.068720438 0.10000008 0.52536035 10197915
-0.067772567 0.10000008 0.52536035 10197915
-0.066824704 0.10000008 0.52536035 10197915
-0.065876834 0.10000008 0.52536035 10197915
-0.064928964 0.10000008 0.52536035 10197915
-0.063981101 0.10000008 0.52536035 10197915
-0.063033231 0.10000008 0.52536035 10197915
-0.06208536 0.10000008 0.52536035 10197915
-0.061137494 0.10000008 0.52536035 10197915
-0.060189623 0.10000008 0.52536035 10197915
-0.059241757 0.10000008 0.52536035 10197915
-0.05829389 0.10000008 0.52536035 10197915
-0.05734602 0.10000008 0.52536035 10197915
-0.056398153 0.10000008 0.52536035 10197915
-0.055450283 0.10000008 0.52536035 10197915
-0.054502416 0.10000008 0.52536035 10197915
-0.05355455 0.10000008 0.52536035 10197915
-0.052606679 0.10000008 0.52536035 10197915
-0.051658813 0.10000008 0.52536035 10197915
-0.050710943 0.10000008 0.52536035 10197915
-0.049763076 0.10000008 0.52536035 10197915
-0.048815209 0.10000008 0.52536035 10197915
-0.047867339 0.10000008 0.52536035 10197915
-0.046919473 0.10000008 0.52536035 10197915
-0.045971625 0.10000013 0.52536058 10197915
-0.045023754 0.10000013 0.52536058 10197915
-0.044075888 0.10000013 0.52536058 10197915
-0.043128017 0.10000013 0.52536058 10197915
-0.042180151 0.10000013 0.52536058 10197915
-0.04123228 0.10000013 0.52536058 10197915
-0.040284414 0.10000013 0.52536058 10197915
-0.039336536 0.10000011 0.52536047 10197915
-0.038388666 0.10000011 0.52536047 10197915
-0.037440799 0.10000011 0.52536047 10197915
-0.036492929 0.10000011 0.52536047 10197915
-0.035545062 0.10000011 0.52536047 10197915
-0.034597192 0.10000011 0.52536047 10197915
-0.033649325 0.10000011 0.52536047 10197915
-0.032701459 0.10000011 0.52536047 10197915
-0.031753588 0.10000011 0.52536047 10197915
-0.03080572 0.10000011 0.52536047 10197915
-0.029857852 0.10000011 0.52536047 10197915
-0.028909983 0.10000011 0.52536047 10197915
-0.027962115 0.10000011 0.52536047 10197915
-0.027014248 0.10000011 0.52536047 10197915
-0.02606638 0.10000011 0.52536047 10197915
-0.025118511 0.10000011 0.52536047 10197915
-0.024170643 0.10000011 0.52536047 10197915
-0.023222774 0.10000011 0.52536047 10197915
-0.022274906 0.10000011 0.52536047 10197915
-0.021327037 0.10000011 0.52536047 10197915
-0.019189568 0.09416277 0.49469343 6710886
-0.018190345 0.093613721 0.49180895 6710886
-0.017240489 0.093275465 0.4900319 6710886
-0.016305007 0.092982605 0.48849332 6710886
-0.015388389 0.092770003 0.48737639 6710886
-0.014475954 0.092558369 0.48626456 6710886
-0.013574215 0.092392229 0.48539174 6710886
-0.012679243 0.092252426 0.48465726 6710886
-0.011786978 0.092113048 0.48392501 6710886
-0.010898801 0.091985874 0.48325691 6710886
-0.010017119 0.091896176 0.48278567 6710886
-0.0091371546 0.09180665 0.48231533 6710886
-0.0082589034 0.091717295 0.48184589 6710886
-0.0073833261 0.091640107 0.48144037 6710886
-0.0065111187 0.091589734 0.48117575 6710886
-0.0056398711 0.091539443 0.48091152 6710886
-0.0047695786 0.091489188 0.4806475 6710886
-0.0039002441 0.091439061 0.48038414 6710886
-0.0030329837 0.091422796 0.4802987 6710886
-0.0021660319 0.091406539 0.48021331 6710886
-0.0012993881 0.091390304 0.48012799 6710886
-0.0004330524 0.091374055 0.48004264 6710886
0.0004330524 0.091374055 0.48004264 6710886
0.0012993881 0.091390304 0.48012799 6710886
0.0021660319 0.091406539 0.48021331 6710886
0.0030329837 0.091422796 0.4802987 6710886
0.0039002411 0.091438986 0.48038375 6710886
0.0047695786 0.091489188 0.4806475 6710886
0.0056398702 0.091539435 0.48091146 6710886
0.0065111192 0.091589741 0.48117578 6710886
0.0073833261 0.091640107 0.48144037 6710886
0.0082589015 0.09171728 0.4818458 6710886
0.0091371536 0.091806643 0.48231527 6710886
0.010017117 0.091896169 0.48278561 6710886
0.0108988 0.091985866 0.48325685 6710886
0.011786976 0.092113033 0.48392493 6710886
0.012679243 0.092252418 0.48465723 6710886
0.013574215 0.092392229 0.48539174 6710886
0.014475954 0.092558369 0.48626456 6710886
0.015388388 0.092769995 0.48737636 6710886
0.016305005 0.092982598 0.48849329 6710886
0.017240485 0.09327545 0.49003181 6710886
0.018190341 0.093613707 0.49180889 6710886
0.019189561 0.094162732 0.49469322 6710886
0.021327037 0.10000011 0.52536047 10197915
0.022274906 0.10000011 0.52536047 10197915
0.023222774 0.10000011 0.52536047 10197915
0.024170643 0.10000011 0.52536047 10197915
0.025118511 0.10000011 0.52536047 10197915
0.02606638 0.10000011 0.52536047 10197915
0.027014248 0.10000011 0.52536047 10197915
0.027962115 0.10000011 0.52536047 10197915
0.028909983 0.10000011 0.52536047 10197915
0.029857852 0.10000011 0.52536047 10197915
0.03080572 0.10000011 0.52536047 10197915
0.031753588 0.10000011 0.52536047 10197915
0.032701459 0.10000011 0.52536047 10197915
0.033649325 0.10000011 0.52536047 10197915
0.034597192 0.10000011 0.52536047 10197915
0.035545062 0.10000011 0.52536047 10197915
0.036492929 0.10000011 0.52536047 10197915
0.037440799 0.10000011 0.52536047 10197915
0.038388666 0.10000011 0.52536047 10197915
0.039336536 0.10000011 0.52536047 10197915
0.040284403 0.10000011 0.52536047 10197915
0.041232273 0.10000011 0.52536047 10197915
0.04218014 0.10000011 0.52536047 10197915
0.04312801 0.10000011 0.52536047 10197915
0.044075876 0.10000011 0.52536047 10197915
0.045023747 0.10000011 0.52536047 10197915
0.045971613 0.10000011 0.52536047 10197915
0.046919484 0.10000011 0.52536047 10197915
0.04786735 0.10000011 0.52536047 10197915
0.048815217 0.10000011 0.52536047 10197915
0.049763087 0.10000011 0.52536047 10197915
0.050710954 0.10000011 0.52536047 10197915
0.051658824 0.10000011 0.52536047 10197915
0.052606691 0.10000011 0.52536047 10197915
0.053554561 0.10000011 0.52536047 10197915
0.054502428 0.10000011 0.52536047 10197915
0.055450298 0.10000011 0.52536047 10197915
0.056398164 0.10000011 0.52536047 10197915
0.057346035 0.10000011 0.52536047 10197915
0.058293901 0.10000011 0.52536047 10197915
0.059241772 0.10000011 0.52536047 10197915
0.060189638 0.10000011 0.52536047 10197915
0.061137509 0.10000011 0.52536047 10197915
0.062085375 0.10000011 0.52536047 10197915
0.063033246 0.10000011 0.52536047 10197915
0.063981108 0.10000011 0.52536047 10197915
0.064928964 0.10000008 0.52536035 10197915
0.065876834 0.10000008 0.52536035 10197915
0.066824704 0.10000008 0.52536035 10197915
0.067772567 0.10000008 0.52536035 10197915
0.068720438 0.10000008 0.52536035 10197915
0.069668308 0.10000008 0.52536035 10197915
0.070616171 0.10000008 0.52536035 10197915
0.071564041 0.10000008 0.52536035 10197915
0.072511911 0.10000008 0.52536035 10197915
0.073459782 0.10000008 0.52536035 10197915
0.074407645 0.10000008 0.52536035 10197915
0.075355515 0.10000008 0.52536035 10197915
0.076303385 0.10000008 0.52536035 10197915
0.077251248 0.10000008 0.52536035 10197915
0.078199118 0.10000008 0.52536035 10197915
0.079146989 0.10000008 0.52536035 10197915
0.080094852 0.10000008 0.52536035 10197915
0.081042722 0.10000008 0.52536035 10197915
0.081990592 0.10000008 0.52536035 10197915
0.082938462 0.10000008 0.52536035 10197915
0.083886325 0.10000008 0.52536035 10197915
0.084834196 0.10000008 0.52536035 10197915
0.085782066 0.10000008 0.52536035 10197915
0.086729929 0.10000008 0.52536035 10197915
0.087677799 0.10000008 0.52536035 10197915
0.088625669 0.10000008 0.52536035 10197915
0.08957354 0.10000008 0.52536035 10197915
0.090521403 0.10000008 0.52536035 10197915
0.091469273 0.10000008 0.52536035 10197915
0.092417143 0.10000008 0.52536035 10197915
0.093365006 0.10000008 0.52536035 10197915
0.094312876 0.10000008 0.52536035 10197915
0.095260747 0.10000008 0.52536035 10197915
0.09620861 0.10000008 0.52536035 10197915
0.09715648 0.10000008 0.52536035 10197915
0.09810435 0.10000008 0.52536035 10197915
0.099052221 0.10000008 0.52536035 10197915
0.10000008 0.10000008 0.52536035 10197915
0.10094795 0.10000008 0.52536035 10197915
0.10189582 0.10000008 0.52536035 10197915
0.10284369 0.10000008 0.52536035 10197915
0.10379156 0.10000008 0.52536035 10197915
0.10473943 0.10000008 0.52536035 10197915
0.10568729 0.10000008 0.52536035 10197915
0.10663516 0.10000008 0.52536035 10197915
0.10758303 0.10000008 0.52536035 10197915
0.1085309 0.10000008 0.52536035 10197915
0.10947876 0.10000008 0.52536035 10197915
0.11042663 0.10000008 0.52536035 10197915
0.1113745 0.10000008 0.52536035 10197915
0.11232237 0.10000008 0.52536035 10197915
0.11327024 0.10000008 0.52536035 10197915
0.11421811 0.10000008 0.52536035 10197915
0.11516598 0.10000008 0.52536035 10197915
0.11611384 0.10000008 0.52536035 10197915
0.11706171 0.10000008 0.52536035 10197915
0.11800958 0.10000008 0.52536035 10197915
0.11895745 0.10000008 0.52536035 10197915
0.11990532 0.10000008 0.52536035 10197915
0.12085319 0.10000008 0.52536035 10197915
0.12180105 0.10000008 0.52536035 10197915
0.12274892 0.10000008 0.52536035 10197915
0.12369679 0.10000008 0.52536035 10197915
0.12464466 0.10000008 0.52536035 10197915
0.12559253 0.10000008 0.52536035 10197915
0.12654039 0.10000008 0.52536035 10197915
0.12748826 0.10000008 0.52536035 10197915
0.12843613 0.10000008 0.52536035 10197915
0.129384 0.10000008 0.52536035 10197915
0.13033186 0.10000008 0.52536035 10197915
0.13127974 0.10000008 0.52536035 10197915
0.1322276 0.10000008 0.52536035 10197915
0.13317546 0.10000008 0.52536035 10197915
0.13412334 0.10000008 0.52536035 10197915
0.1350712 0.10000008 0.52536035 10197915
0.13601908 0.10000008 0.52536035 10197915
0.13696694 0.10000008 0.52536035 10197915
0.13791481 0.10000008 0.52536035 10197915
0.13886268 0.10000008 0.52536035 10197915
0.13981055 0.10000008 0.52536035 10197915
0.14075841 0.10000008 0.52536035 10197915
0.14170629 0.10000008 0.52536035 10197915
0.14265415 0.10000008 0.52536035 10197915
0.14360201 0.10000008 0.52536035 10197915
0.14454989 0.10000008 0.52536035 10197915
0.14549775 0.10000008 0.52536035 10197915
0.14644562 0.10000008 0.52536035 10197915
0.14739349 0.10000008 0.52536035 10197915
0.14834136 0.10000008 0.52536035 10197915
0.14928922 0.10000008 0.52536035 10197915
0.1502371 0.10000008 0.52536035 10197915
0.15118496 0.10000008 0.52536035 10197915
0.15213282 0.10000008 0.52536035 10197915
0.1530807 0.10000008 0.52536035 10197915
0.15402856 0.10000008 0.52536035 10197915
0.15497644 0.10000008 0.52536035 10197915
0.15592431 0.10000008 0.52536035 10197915
0.15687217 0.10000008 0.52536035 10197915
0.15782005 0.10000008 0.52536035 10197915
0.15876791 0.10000008 0.52536035 10197915
0.15971577 0.10000008 0.52536035 10197915
0.16066365 0.10000008 0.52536035 10197915
0.16161151 0.10000008 0.52536035 10197915
0.16255938 0.10000008 0.52536035 10197915
0.16350725 0.10000008 0.52536035 10197915
0.16445512 0.10000008 0.52536035 10197915
0.16540298 0.10000008 0.52536035 10197915
0.16635086 0.10000008 0.52536035 10197915
0.16729872 0.10000008 0.52536035 10197915
0.16824658 0.10000008 0.52536035 10197915
0.16919446 0.10000008 0.52536035 10197915
0.17014226 0.10000005 0.52536017 10197915
0.17109014 0.10000005 0.52536017 10197915
0.172038 0.10000005 0.52536017 10197915
0.17298587 0.10000005 0.52536017 10197915
0.17393374 0.10000005 0.52536017 10197915
0.17488161 0.10000005 0.52536017 10197915
0.17582947 0.10000005 0.52536017 10197915
0.17677735 0.10000005 0.52536017 10197915
0.17772521 0.10000005 0.52536017 10197915
0.17867307 0.10000005 0.52536017 10197915
0.17962095 0.10000005 0.52536017 10197915
0.18056881 0.10000005 0.52536017 10197915
0.18151668 0.10000005 0.52536017 10197915
0.18246455 0.10000005 0.52536017 10197915
0.18341242 0.10000005 0.52536017 10197915
0.18436028 0.10000005 0.52536017 10197915
0.18530816 0.10000005 0.52536017 10197915
0.18625602 0.10000005 0.52536017 10197915
0.18720388 0.10000005 0.52536017 10197915
0.18815176 0.10000005 0.52536017 10197915
0.18909962 0.10000005 0.52536017 10197915
0.19004749 0.10000005 0.52536017 10197915
0.19099537 0.10000005 0.52536017 10197915
0.19194323 0.10000005 0.52536017 10197915
0.19289109 0.10000005 0.52536017 10197915
0.19383897 0.10000005 0.52536017 10197915
0.19478683 0.10000005 0.52536017 10197915
0.19573469 0.10000005 0.52536017 10197915
0.19668257 0.10000005 0.52536017 10197915
0.19763044 0.10000005 0.52536017 10197915
0.1985783 0.10000005 0.52536017 10197915
0.19952618 0.10000005 0.52536017 10197915
-0.19953074 0.10000011 0.52042753 10197915
-0.19859177 0.10000011 0.52042753 10197915
-0.1976528 0.10000011 0.52042753 10197915
-0.19671384 0.10000011 0.52042753 10197915
-0.19577487 0.10000011 0.52042753 10197915
-0.1948359 0.10000011 0.52042753 10197915
-0.19389693 0.10000011 0.52042753 10197915
-0.19295797 0.10000011 0.52042753 10197915
-0.192019 0.10000011 0.52042753 10197915
-0.19108003 0.10000011 0.52042753 10197915
-0.19014105 0.10000011 0.52042753 10197915
-0.18920209 0.10000011 0.52042753 10197915
-0.18826312 0.10000011 0.52042753 10197915
-0.18732415 0.10000011 0.52042753 10197915
-0.18638518 0.10000011 0.52042753 10197915
-0.18544622 0.10000011 0.52042753 10197915
-0.18450725 0.10000011 0.52042753 10197915
-0.18356828 0.10000011 0.52042753 10197915
-0.18262932 0.10000011 0.52042753 10197915
-0.18169035 0.10000011 0.52042753 10197915
-0.18075138 0.10000011 0.52042753 10197915
-0.1798124 0.10000011 0.52042753 10197915
-0.17887343 0.10000011 0.52042753 10197915
-0.17793447 0.10000011 0.52042753 10197915
-0.1769955 0.10000011 0.52042753 10197915
-0.17605653 0.10000011 0.52042753 10197915
-0.17511757 0.10000011 0.52042753 10197915
-0.1741786 0.10000011 0.52042753 10197915
-0.17323963 0.10000011 0.52042753 10197915
-0.17230067 0.10000011 0.52042753 10197915
-0.1713617 0.10000011 0.52042753 10197915
-0.17042273 0.10000011 0.52042753 10197915
-0.16948377 0.10000011 0.52042753 10197915
-0.16854478 0.10000011 0.52042753 10197915
-0.16760582 0.10000011 0.52042753 10197915
-0.16666685 0.10000011 0.52042753 10197915
-0.16572788 0.10000011 0.52042753 10197915
-0.16478892 0.10000011 0.52042753 10197915
-0.16384995 0.10000011 0.52042753 10197915
-0.16291098 0.10000011 0.52042753 10197915
-0.16197202 0.10000011 0.52042753 10197915
-0.16103305 0.10000011 0.52042753 10197915
-0.16009408 0.10000011 0.52042753 10197915
-0.15915512 0.10000011 0.52042753 10197915
-0.15821613 0.10000011 0.52042753 10197915
-0.15727717 0.10000011 0.52042753 10197915
-0.1563382 0.10000011 0.52042753 10197915
-0.15539923 0.10000011 0.52042753 10197915
-0.15446027 0.10000011 0.52042753 10197915
-0.1535213 0.10000011 0.52042753 10197915
-0.15258233 0.10000011 0.52042753 10197915
-0.15164337 0.10000011 0.52042753 10197915
-0.1507044 0.10000011 0.52042753 10197915
-0.14976543 0.10000011 0.52042753 10197915
-0.14882647 0.10000011 0.52042753 10197915
-0.14788748 0.10000011 0.52042753 10197915
-0.14694852 0.10000011 0.52042753 10197915
-0.14600955 0.10000011 0.52042753 10197915
-0.14507058 0.10000011 0.52042753 10197915
-0.14413162 0.10000011 0.52042753 10197915
-0.14319265 0.10000011 0.52042753 10197915
-0.14225368 0.10000011 0.52042753 10197915
-0.14131472 0.10000011 0.52042753 10197915
-0.14037575 0.10000011 0.52042753 10197915
-0.13943678 0.10000011 0.52042753 10197915
-0.13849781 0.10000011 0.52042753 10197915
-0.13755883 0.10000011 0.52042753 10197915
-0.13661987 0.10000011 0.52042753 10197915
-0.1356809 0.10000011 0.52042753 10197915
-0.13474193 0.10000011 0.52042753 10197915
-0.13380297 0.10000011 0.52042753 10197915
-0.132864 0.10000011 0.52042753 10197915
-0.13192503 0.10000011 0.52042753 10197915
-0.13098606 0.10000011 0.52042753 10197915
-0.1300471 0.10000011 0.52042753 10197915
-0.12910813 0.10000011 0.52042753 10197915
-0.12816916 0.10000011 0.52042753 10197915
-0.1272302 0.10000011 0.52042753 10197915
-0.12629122 0.10000011 0.52042753 10197915
-0.12535225 0.10000011 0.52042753 10197915
-0.12441328 0.10000011 0.52042753 10197915
-0.12347431 0.10000011 0.52042753 10197915
-0.12253535 0.10000011 0.52042753 10197915
-0.12159638 0.10000011 0.52042753 10197915
-0.12065741 0.10000011 0.52042753 10197915
-0.11971845 0.10000011 0.52042753 10197915
-0.11877945 0.10000009 0.52042741 10197915
-0.11784048 0.10000009 0.52042741 10197915
-0.11690151 0.10000009 0.52042741 10197915
-0.11596254 0.10000009 0.52042741 10197915
-0.11502358 0.10000009 0.52042741 10197915
-0.11408461 0.10000009 0.52042741 10197915
-0.11314564 0.10000009 0.52042741 10197915
-0.11220668 0.10000009 0.52042741 10197915
-0.11126771 0.10000009 0.52042741 10197915
-0.11032873 0.10000009 0.52042741 10197915
-0.10938977 0.10000009 0.52042741 10197915
-0.1084508 0.10000009 0.52042741 10197915
-0.10751183 0.10000009 0.52042741 10197915
-0.10657287 0.10000009 0.52042741 10197915
-0.1056339 0.10000009 0.52042741 10197915
-0.10469493 0.10000009 0.52042741 10197915
-0.10375596 0.10000009 0.52042741 10197915
-0.10281699 0.10000009 0.52042741 10197915
-0.10187802 0.10000009 0.52042741 10197915
-0.10093906 0.10000009 0.52042741 10197915
-0.10000009 0.10000009 0.52042741 10197915
-0.099061124 0.10000009 0.52042741 10197915
-0.098122157 0.10000009 0.52042741 10197915
-0.097183183 0.10000009 0.52042741 10197915
-0.096244216 0.10000009 0.52042741 10197915
-0.095305249 0.10000009 0.52042741 10197915
-0.094366282 0.10000009 0.52042741 10197915
-0.093427315 0.10000009 0.52042741 10197915
-0.092488348 0.10000009 0.52042741 10197915
-0.091549374 0.10000009 0.52042741 10197915
-0.090610407 0.10000009 0.52042741 10197915
-0.08967144 0.10000009 0.52042741 10197915
-0.088732474 0.10000009 0.52042741 10197915
-0.087793507 0.10000009 0.52042741 10197915
-0.08685454 0.10000009 0.52042741 10197915
-0.085915573 0.10000009 0.52042741 10197915
-0.084976599 0.10000009 0.52042741 10197915
-0.084037632 0.10000009 0.52042741 10197915
-0.083098665 0.10000009 0.52042741 10197915
-0.082159698 0.10000009 0.52042741 10197915
-0.081220731 0.10000009 0.52042741 10197915
-0.080281764 0.10000009 0.52042741 10197915
-0.079342797 0.10000009 0.52042741 10197915
-0.078403823 0.10000009 0.52042741 10197915
-0.077464856 0.10000009 0.52042741 10197915
-0.076525889 0.10000009 0.52042741 10197915
-0.075586922 0.10000009 0.52042741 10197915
-0.074647956 0.10000009 0.52042741 10197915
-0.073708989 0.10000009 0.52042741 10197915
-0.072770022 0.10000009 0.52042741 10197915
-0.071831048 0.10000009 0.52042741 10197915
-0.070892081 0.10000009 0.52042741 10197915
-0.069953114 0.10000009 0.52042741 10197915
-0.069014147 0.10000009 0.52042741 10197915
-0.06807518 0.10000009 0.52042741 10197915
-0.067136213 0.10000009 0.52042741 10197915
-0.066197239 0.10000009 0.52042741 10197915
-0.065258272 0.10000009 0.52042741 10197915
-0.064319305 0.10000009 0.52042741 10197915
-0.063380338 0.10000009 0.52042741 10197915
-0.062441371 0.10000009 0.52042741 10197915
-0.061502401 0.10000009 0.52042741 10197915
-0.060563434 0.10000009 0.52042741 10197915
-0.059624467 0.10000009 0.52042741 10197915
-0.0586855 0.10000009 0.52042741 10197915
-0.05774653 0.10000009 0.52042741 10197915
-0.056807563 0.10000009 0.52042741 10197915
-0.055868596 0.10000009 0.52042741 10197915
-0.054929625 0.10000009 0.52042741 10197915
-0.053990658 0.10000009 0.52042741 10197915
-0.053051692 0.10000009 0.52042741 10197915
-0.052112721 0.10000009 0.52042741 10197915
-0.051173754 0.10000009 0.52042741 10197915
-0.050234787 0.10000009 0.52042741 10197915
-0.04929582 0.10000009 0.52042741 10197915
-0.04835685 0.10000009 0.52042741 10197915
-0.047417883 0.10000009 0.52042741 10197915
-0.046478916 0.10000009 0.52042741 10197915
-0.045539945 0.10000009 0.52042741 10197915
-0.044600978 0.10000009 0.52042741 10197915
-0.04366203 0.10000014 0.52042764 10197915
-0.042723063 0.10000014 0.52042764 10197915
-0.041784093 0.10000014 0.52042764 10197915
-0.040845126 0.10000014 0.52042764 10197915
-0.039906159 0.10000014 0.52042764 10197915
-0.038967181 0.10000011 0.52042753 10197915
-0.03802821 0.10000011 0.52042753 10197915
-0.037089244 0.10000011 0.52042753 10197915
-0.036150277 0.10000011 0.52042753 10197915
-0.035211306 0.10000011 0.52042753 10197915
-0.034272339 0.10000011 0.52042753 10197915
-0.033333372 0.10000011 0.52042753 10197915
-0.032394402 0.10000011 0.52042753 10197915
-0.031455435 0.10000011 0.52042753 10197915
-0.030516466 0.10000011 0.52042753 10197915
-0.029577497 0.10000011 0.52042753 10197915
-0.028638531 0.10000011 0.52042753 10197915
-0.027699562 0.10000011 0.52042753 10197915
-0.026760593 0.10000011 0.52042753 10197915
-0.025821626 0.10000011 0.52042753 10197915
-0.024882657 0.10000011 0.52042753 10197915
-0.023943689 0.10000011 0.52042753 10197915
-0.02300472 0.10000011 0.52042753 10197915
-0.022065753 0.10000011 0.52042753 10197915
-0.021126784 0.10000011 0.52042753 10197915
-0.019189568 0.095055304 0.49469343 6710886
-0.018190345 0.094501056 0.49180895 6710886
-0.017240489 0.094159596 0.4900319 6710886
-0.016305007 0.093863957 0.48849332 6710886
-0.015388389 0.093649343 0.48737639 6710886
-0.014475954 0.093435697 0.48626456 6710886
-0.013574215 0.093267985 0.48539174 6710886
-0.012679243 0.093126856 0.48465726 6710886
-0.011786978 0.092986159 0.48392501 6710886
-0.010898801 0.092857778 0.48325691 6710886
-0.010017119 0.092767231 0.48278567 6710886
-0.0091371546 0.092676856 0.48231533 6710886
-0.0082589034 0.092586651 0.48184589 6710886
-0.0073833261 0.092508733 0.48144037 6710886
-0.0065111187 0.092457883 0.48117575 6710886
-0.0056398711 0.092407115 0.48091152 6710886
-0.0047695786 0.092356384 0.4806475 6710886
-0.0039002441 0.092305779 0.48038414 6710886
-0.0030329837 0.092289358 0.4802987 6710886
-0.0021660319 0.092272952 0.48021331 6710886
-0.0012993881 0.092256561 0.48012799 6710886
-0.0004330524 0.092240162 0.48004264 6710886
0.0004330524 0.092240162 0.48004264 6710886
0.0012993881 0.092256561 0.48012799 6710886
0.0021660319 0.092272952 0.48021331 6710886
0.0030329837 0.092289358 0.4802987 6710886
0.0039002411 0.092305705 0.48038375 6710886
0.0047695786 0.092356384 0.4806475 6710886
0.0056398702 0.092407107 0.48091146 6710886
0.0065111192 0.092457891 0.48117578 6710886
0.0073833261 0.092508733 0.48144037 6710886
0.0082589015 0.092586637 0.4818458 6710886
0.0091371536 0.092676848 0.48231527 6710886
0.010017117 0.092767224 0.48278561 6710886
0.0108988 0.092857771 0.48325685 6710886
0.011786976 0.092986144 0.48392493 6710886
0.012679243 0.093126856 0.48465723 6710886
0.013574215 0.093267985 0.48539174 6710886
0.014475954 0.093435697 0.48626456 6710886
0.015388388 0.093649335 0.48737636 6710886
0.016305005 0.093863949 0.48849329 6710886
0.017240485 0.094159581 0.49003181 6710886
0.018190341 0.094501041 0.49180889 6710886
0.019189561 0.095055267 0.49469322 6710886
0.021126784 0.10000011 0.52042753 10197915
0.022065753 0.10000011 0.52042753 10197915
0.02300472 0.10000011 0.52042753 10197915
0.023943689 0.10000011 0.52042753 10197915
0.024882657 0.10000011 0.52042753 10197915
0.025821626 0.10000011 0.52042753 10197915
0.026760593 0.10000011 0.52042753 10197915
0.027699562 0.10000011 0.52042753 10197915
0.028638531 0.10000011 0.52042753 10197915
0.029577497 0.10000011 0.52042753 10197915
0.030516466 0.10000011 0.52042753 10197915
0.031455435 0.10000011 0.52042753 10197915
0.032394402 0.10000011 0.52042753 10197915
0.033333372 0.10000011 0.52042753 10197915
0.034272339 0.10000011 0.52042753 10197915
0.035211306 0.10000011 0.52042753 10197915
0.036150277 0.10000011 0.52042753 10197915
0.037089244 0.10000011 0.52042753 10197915
0.03802821 0.10000011 0.52042753 10197915
0.038967181 0.10000011 0.52042753 10197915
0.039906148 0.10000011 0.52042753 10197915
0.040845115 0.10000011 0.52042753 10197915
0.041784085 0.10000011 0.52042753 10197915
0.042723052 0.10000011 0.52042753 10197915
0.043662019 0.10000011 0.52042753 10197915
0.04460099 0.10000011 0.52042753 10197915
0.045539957 0.10000011 0.52042753 10197915
0.046478927 0.10000011 0.52042753 10197915
0.047417894 0.10000011 0.52042753 10197915
0.048356861 0.10000011 0.52042753 10197915
0.049295831 0.10000011 0.52042753 10197915
0.050234798 0.10000011 0.52042753 10197915
0.051173765 0.10000011 0.52042753 10197915
0.052112736 0.10000011 0.52042753 10197915
0.053051703 0.10000011 0.52042753 10197915
0.05399067 0.10000011 0.52042753 10197915
0.05492964 0.10000011 0.52042753 10197915
0.055868607 0.10000011 0.52042753 10197915
0.056807574 0.10000011 0.52042753 10197915
0.057746544 0.10000011 0.52042753 10197915
0.058685511 0.10000011 0.52042753 10197915
0.059624482 0.10000011 0.52042753 10197915
0.060563449 0.10000011 0.52042753 10197915
0.061502416 0.10000011 0.52042753 10197915
0.062441386 0.10000011 0.52042753 10197915
0.063380353 0.10000011 0.52042753 10197915
0.064319298 0.10000008 0.52042735 10197915
0.065258265 0.10000008 0.52042735 10197915
0.066197231 0.10000008 0.52042735 10197915
0.067136206 0.10000008 0.52042735 10197915
0.068075173 0.10000008 0.52042735 10197915
0.069014139 0.10000008 0.52042735 10197915
0.069953106 0.10000008 0.52042735 10197915
0.070892073 0.10000008 0.52042735 10197915
0.07183104 0.10000008 0.52042735 10197915
0.072770007 0.10000008 0.52042735 10197915
0.073708981 0.10000008 0.52042735 10197915
0.074647948 0.10000008 0.52042735 10197915
0.075586915 0.10000008 0.52042735 10197915
0.076525882 0.10000008 0.52042735 10197915
0.077464849 0.10000008 0.52042735 10197915
0.078403816 0.10000008 0.52042735 10197915
0.079342782 0.10000008 0.52042735 10197915
0.080281749 0.10000008 0.52042735 10197915
0.081220724 0.10000008 0.52042735 10197915
0.082159691 0.10000008 0.52042735 10197915
0.083098657 0.10000008 0.52042735 10197915
0.084037624 0.10000008 0.52042735 10197915
0.084976591 0.10000008 0.52042735 10197915
0.085915558 0.10000008 0.52042735 10197915
0.086854525 0.10000008 0.52042735 10197915
0.087793499 0.10000008 0.52042735 10197915
0.088732466 0.10000008 0.52042735 10197915
0.089671433 0.10000008 0.52042735 10197915
0.0906104 0.10000008 0.52042735 10197915
0.091549367 0.10000008 0.52042735 10197915
0.092488334 0.10000008 0.52042735 10197915
0.0934273 0.10000008 0.52042735 10197915
0.094366267 0.10000008 0.52042735 10197915
0.095305242 0.10000008 0.52042735 10197915
0.096244209 0.10000008 0.52042735 10197915
0.097183175 0.10000008 0.52042735 10197915
0.098122142 0.10000008 0.52042735 10197915
0.099061109 0.10000008 0.52042735 10197915
0.10000008 0.10000008 0.52042735 10197915
0.10093904 0.10000008 0.52042735 10197915
0.10187802 0.10000008 0.52042735 10197915
0.10281698 0.10000008 0.52042735 10197915
0.10375595 0.10000008 0.52042735 10197915
0.10469492 0.10000008 0.52042735 10197915
0.10563388 0.10000008 0.52042735 10197915
0.10657285 0.10000008 0.52042735 10197915
0.10751182 0.10000008 0.52042735 10197915
0.10845079 0.10000008 0.52042735 10197915
0.10938976 0.10000008 0.52042735 10197915
0.11032873 0.10000008 0.52042735 10197915
0.11126769 0.10000008 0.52042735 10197915
0.11220666 0.10000008 0.52042735 10197915
0.11314563 0.10000008 0.52042735 10197915
0.11408459 0.10000008 0.52042735 10197915
0.11502356 0.10000008 0.52042735 10197915
0.11596254 0.10000008 0.52042735 10197915
0.1169015 0.10000008 0.52042735 10197915
0.11784047 0.10000008 0.52042735 10197915
0.11877944 0.10000008 0.52042735 10197915
0.1197184 0.10000008 0.52042735 10197915
0.12065737 0.10000008 0.52042735 10197915
0.12159634 0.10000008 0.52042735 10197915
0.1225353 0.10000008 0.52042735 10197915
0.12347428 0.10000008 0.52042735 10197915
0.12441324 0.10000008 0.52042735 10197915
0.1253522 0.10000008 0.52042735 10197915
0.12629119 0.10000008 0.52042735 10197915
0.12723015 0.10000008 0.52042735 10197915
0.12816912 0.10000008 0.52042735 10197915
0.12910809 0.10000008 0.52042735 10197915
0.13004705 0.10000008 0.52042735 10197915
0.13098602 0.10000008 0.52042735 10197915
0.13192499 0.10000008 0.52042735 10197915
0.13286395 0.10000008 0.52042735 10197915
0.13380292 0.10000008 0.52042735 10197915
0.13474189 0.10000008 0.52042735 10197915
0.13568085 0.10000008 0.52042735 10197915
0.13661982 0.10000008 0.52042735 10197915
0.13755879 0.10000008 0.52042735 10197915
0.13849775 0.10000008 0.52042735 10197915
0.13943672 0.10000008 0.52042735 10197915
0.1403757 0.10000008 0.52042735 10197915
0.14131467 0.10000008 0.52042735 10197915
0.14225364 0.10000008 0.52042735 10197915
0.1431926 0.10000008 0.52042735 10197915
0.14413157 0.10000008 0.52042735 10197915
0.14507054 0.10000008 0.52042735 10197915
0.1460095 0.10000008 0.52042735 10197915
0.14694847 0.10000008 0.52042735 10197915
0.14788744 0.10000008 0.52042735 10197915
0.14882641 0.10000008 0.52042735 10197915
0.14976537 0.10000008 0.52042735 10197915
0.15070434 0.10000008 0.52042735 10197915
0.15164331 0.10000008 0.52042735 10197915
0.15258227 0.10000008 0.52042735 10197915
0.15352124 0.10000008 0.52042735 10197915
0.15446022 0.10000008 0.52042735 10197915
0.15539919 0.10000008 0.52042735 10197915
0.15633816 0.10000008 0.52042735 10197915
0.15727712 0.10000008 0.52042735 10197915
0.15821609 0.10000008 0.52042735 10197915
0.15915506 0.10000008 0.52042735 10197915
0.16009402 0.10000008 0.52042735 10197915
0.16103299 0.10000008 0.52042735 10197915
0.16197196 0.10000008 0.52042735 10197915
0.16291092 0.10000008 0.52042735 10197915
0.16384989 0.10000008 0.52042735 10197915
0.16478886 0.10000008 0.52042735 10197915
0.16572782 0.10000008 0.52042735 10197915
0.16666679 0.10000008 0.52042735 10197915
0.16760576 0.10000008 0.52042735 10197915
0.16854469 0.10000005 0.52042723 10197915
0.16948366 0.10000005 0.52042723 10197915
0.17042263 0.10000005 0.52042723 10197915
0.1713616 0.10000005 0.52042723 10197915
0.17230056 0.10000005 0.52042723 10197915
0.17323953 0.10000005 0.52042723 10197915
0.1741785 0.10000005 0.52042723 10197915
0.17511746 0.10000005 0.52042723 10197915
0.17605643 0.10000005 0.52042723 10197915
0.1769954 0.10000005 0.52042723 10197915
0.17793436 0.10000005 0.52042723 10197915
0.17887335 0.10000005 0.52042723 10197915
0.17981231 0.10000005 0.52042723 10197915
0.18075128 0.10000005 0.52042723 10197915
0.18169025 0.10000005 0.52042723 10197915
0.18262921 0.10000005 0.52042723 10197915
0.18356818 0.10000005 0.52042723 10197915
0.18450715 0.10000005 0.52042723 10197915
0.18544611 0.10000005 0.52042723 10197915
0.18638508 0.10000005 0.52042723 10197915
0.18732405 0.10000005 0.52042723 10197915
0.18826301 0.10000005 0.52042723 10197915
0.18920198 0.10000005 0.52042723 10197915
0.19014095 0.10000005 0.52042723 10197915
0.19107991 0.10000005 0.52042723 10197915
0.19201888 0.10000005 0.52042723 10197915
0.19295785 0.10000005 0.52042723 10197915
0.19389682 0.10000005 0.52042723 10197915
0.19483578 0.10000005 0.52042723 10197915
0.19577475 0.10000005 0.52042723 10197915
0.19671373 0.10000005 0.52042723 10197915
0.1976527 0.10000005 0.52042723 10197915
0.19859166 0.10000005 0.52042723 10197915
0.19953063 0.10000005 0.52042723 10197915
-0.19953512 0.10000012 0.51558638 10197915
-0.19860488 0.10000012 0.51558638 10197915
-0.19767466 0.10000012 0.51558638 10197915
-0.19674443 0.10000012 0.51558638 10197915
-0.19581419 0.10000012 0.51558638 10197915
-0.19488396 0.10000012 0.51558638 10197915
-0.19395372 0.10000012 0.51558638 10197915
-0.19302349 0.10000012 0.51558638 10197915
-0.19209325 0.10000012 0.51558638 10197915
-0.19116302 0.10000012 0.51558638 10197915
-0.19023278 0.10000012 0.51558638 10197915
-0.18930255 0.10000012 0.51558638 10197915
-0.18837231 0.10000012 0.51558638 10197915
-0.18744208 0.10000012 0.51558638 10197915
-0.18651184 0.10000012 0.51558638 10197915
-0.18558162 0.10000012 0.51558638 10197915
-0.18465139 0.10000012 0.51558638 10197915
-0.18372115 0.10000012 0.51558638 10197915
-0.18279092 0.10000012 0.51558638 10197915
-0.18186069 0.10000012 0.51558638 10197915
-0.18093045 0.10000012 0.51558638 10197915
-0.18000022 0.10000012 0.51558638 10197915
-0.17906998 0.10000012 0.51558638 10197915
-0.17813975 0.10000012 0.51558638 10197915
-0.17720951 0.10000012 0.51558638 10197915
-0.17627928 0.10000012 0.51558638 10197915
-0.17534904 0.10000012 0.51558638 10197915
-0.17441881 0.10000012 0.51558638 10197915
-0.17348857 0.10000012 0.51558638 10197915
-0.17255835 0.10000012 0.51558638 10197915
-0.17162812 0.10000012 0.51558638 10197915
-0.17069788 0.10000012 0.51558638 10197915
-0.16976765 0.10000012 0.51558638 10197915
-0.16883741 0.10000012 0.51558638 10197915
-0.16790718 0.10000012 0.51558638 10197915
-0.16697694 0.10000012 0.51558638 10197915
-0.16604671 0.10000012 0.51558638 10197915
-0.16511647 0.10000012 0.51558638 10197915
-0.16418624 0.10000012 0.51558638 10197915
-0.163256 0.10000012 0.51558638 10197915
-0.16232577 0.10000012 0.51558638 10197915
-0.16139553 0.10000012 0.51558638 10197915
-0.16046531 0.10000012 0.51558638 10197915
-0.15953508 0.10000012 0.51558638 10197915
-0.15860485 0.10000012 0.51558638 10197915
-0.15767461 0.10000012 0.51558638 10197915
