# .PCD v0.7 - Point Cloud Data file format
VERSION 0.7
FIELDS x y z rgb
SIZE 4 4 4 4
TYPE F F F U
COUNT 1 1 1 1
WIDTH 1115
HEIGHT 1
VIEWPOINT 0 0 0 1 0 0 0
POINTS 1115
DATA ascii
0.0053834906 0.068328924 0.45905 6710886
0.0062279152 0.068507068 0.46024683 6710886
0.0070767538 0.068686143 0.46144989 6710886
0.0079320874 0.068883918 0.4627786 6710886
0.0087927412 0.069085822 0.46413505 6710886
0.0096610403 0.069307469 0.46562409 6710886
0.010535887 0.069536857 0.4671652 6710886
0.011420696 0.069793142 0.468887 6710886
0.01231375 0.070060991 0.47068647 6710886
0.01322 0.07036452 0.47272563 6710886
0.014140143 0.07070072 0.47498429 6710886
0.015077424 0.071079284 0.47752762 6710886
0.016039284 0.071526535 0.48053235 6710886
0.017042248 0.072101817 0.4843972 6710886
0.018131122 0.07296671 0.49020779 7039851
0.026060639 0.10000012 0.67182469 10197915
0.027272761 0.10000012 0.67182469 10197915
0.028484883 0.10000012 0.67182469 10197915
0.029697007 0.10000012 0.67182469 10197915
0.030909128 0.10000012 0.67182469 10197915
0.032121252 0.10000012 0.67182469 10197915
0.033333376 0.10000012 0.67182469 10197915
0.034545496 0.10000012 0.67182469 10197915
0.03575762 0.10000012 0.67182469 10197915
0.036969744 0.10000012 0.67182469 10197915
0.038181864 0.10000012 0.67182469 10197915
0.039393988 0.10000012 0.67182469 10197915
0.040606111 0.10000012 0.67182469 10197915
0.041818231 0.10000012 0.67182469 10197915
0.043030355 0.10000012 0.67182469 10197915
0.044242479 0.10000012 0.67182469 10197915
0.045454603 0.10000012 0.67182469 10197915
0.046666723 0.10000012 0.67182469 10197915
0.047878847 0.10000012 0.67182469 10197915
0.04909097 0.10000012 0.67182469 10197915
0.05030309 0.10000012 0.67182469 10197915
0.051515214 0.10000012 0.67182469 10197915
0.052727338 0.10000012 0.67182469 10197915
0.053939462 0.10000012 0.67182469 10197915
0.055151582 0.10000012 0.67182469 10197915
0.056363706 0.10000012 0.67182469 10197915
0.057575829 0.10000012 0.67182469 10197915
0.058787949 0.10000012 0.67182469 10197915
0.060000073 0.10000012 0.67182469 10197915
0.061212197 0.10000012 0.67182469 10197915
0.062424321 0.10000012 0.67182469 10197915
0.063636445 0.10000012 0.67182469 10197915
0.064848565 0.10000012 0.67182469 10197915
0.066060685 0.10000012 0.67182469 10197915
0.067272812 0.10000012 0.67182469 10197915
0.068484932 0.10000012 0.67182469 10197915
0.069697052 0.10000012 0.67182469 10197915
0.07090918 0.10000012 0.67182469 10197915
0.0721213 0.10000012 0.67182469 10197915
0.07333342 0.10000012 0.67182469 10197915
0.074545547 0.10000012 0.67182469 10197915
0.075757667 0.10000012 0.67182469 10197915
0.076969795 0.10000012 0.67182469 10197915
0.078181915 0.10000012 0.67182469 10197915
0.079394035 0.10000012 0.67182469 10197915
0.080606163 0.10000012 0.67182469 10197915
0.081818283 0.10000012 0.67182469 10197915
0.083030373 0.10000009 0.67182446 10197915
0.0842425 0.10000009 0.67182446 10197915
0.08545462 0.10000009 0.67182446 10197915
0.08666674 0.10000009 0.67182446 10197915
0.087878868 0.10000009 0.67182446 10197915
0.089090988 0.10000009 0.67182446 10197915
0.090303108 0.10000009 0.67182446 10197915
0.091515228 0.10000009 0.67182446 10197915
0.092727356 0.10000009 0.67182446 10197915
0.093939476 0.10000009 0.67182446 10197915
0.095151596 0.10000009 0.67182446 10197915
0.096363723 0.10000009 0.67182446 10197915
0.097575843 0.10000009 0.67182446 10197915
0.098787963 0.10000009 0.67182446 10197915
0.10000009 0.10000009 0.67182446 10197915
0.10121221 0.10000009 0.67182446 10197915
0.10242433 0.10000009 0.67182446 10197915
0.10363645 0.10000009 0.67182446 10197915
0.10484858 0.10000009 0.67182446 10197915
0.1060607 0.10000009 0.67182446 10197915
0.10727282 0.10000009 0.67182446 10197915
0.10848495 0.10000009 0.67182446 10197915
0.10969707 0.10000009 0.67182446 10197915
0.11090919 0.10000009 0.67182446 10197915
0.11212131 0.10000009 0.67182446 10197915
0.11333343 0.10000009 0.67182446 10197915
0.11454555 0.10000009 0.67182446 10197915
0.11575767 0.10000009 0.67182446 10197915
0.1169698 0.10000009 0.67182446 10197915
0.11818192 0.10000009 0.67182446 10197915
0.11939404 0.10000009 0.67182446 10197915
0.12060617 0.10000009 0.67182446 10197915
0.12181829 0.10000009 0.67182446 10197915
0.12303041 0.10000009 0.67182446 10197915
0.12424253 0.10000009 0.67182446 10197915
0.12545465 0.10000009 0.67182446 10197915
0.12666678 0.10000009 0.67182446 10197915
0.1278789 0.10000009 0.67182446 10197915
0.12909102 0.10000009 0.67182446 10197915
0.13030314 0.10000009 0.67182446 10197915
0.13151526 0.10000009 0.67182446 10197915
0.13272738 0.10000009 0.67182446 10197915
0.1339395 0.10000009 0.67182446 10197915
0.13515164 0.10000009 0.67182446 10197915
0.13636376 0.10000009 0.67182446 10197915
0.13757588 0.10000009 0.67182446 10197915
0.138788 0.10000009 0.67182446 10197915
0.14000012 0.10000009 0.67182446 10197915
0.14121224 0.10000009 0.67182446 10197915
0.14242436 0.10000009 0.67182446 10197915
0.14363649 0.10000009 0.67182446 10197915
0.14484861 0.10000009 0.67182446 10197915
0.14606073 0.10000009 0.67182446 10197915
0.14727286 0.10000009 0.67182446 10197915
0.14848498 0.10000009 0.67182446 10197915
0.1496971 0.10000009 0.67182446 10197915
0.15090923 0.10000009 0.67182446 10197915
0.15212135 0.10000009 0.67182446 10197915
0.15333347 0.10000009 0.67182446 10197915
0.15454559 0.10000009 0.67182446 10197915
0.15575771 0.10000009 0.67182446 10197915
0.15696983 0.10000009 0.67182446 10197915
0.15818195 0.10000009 0.67182446 10197915
0.15939409 0.10000009 0.67182446 10197915
0.16060621 0.10000009 0.67182446 10197915
0.16181833 0.10000009 0.67182446 10197915
0.16303045 0.10000009 0.67182446 10197915
0.16424257 0.10000009 0.67182446 10197915
0.16545469 0.10000009 0.67182446 10197915
0.16666681 0.10000009 0.67182446 10197915
0.16787894 0.10000009 0.67182446 10197915
0.16909106 0.10000009 0.67182446 10197915
0.17030318 0.10000009 0.67182446 10197915
0.1715153 0.10000009 0.67182446 10197915
0.17272742 0.10000009 0.67182446 10197915
0.17393954 0.10000009 0.67182446 10197915
0.17515166 0.10000009 0.67182446 10197915
0.1763638 0.10000009 0.67182446 10197915
0.17757592 0.10000009 0.67182446 10197915
0.17878804 0.10000009 0.67182446 10197915
0.18000016 0.10000009 0.67182446 10197915
0.18121228 0.10000009 0.67182446 10197915
0.1824244 0.10000009 0.67182446 10197915
0.18363653 0.10000009 0.67182446 10197915
0.18484865 0.10000009 0.67182446 10197915
0.18606077 0.10000009 0.67182446 10197915
0.18727289 0.10000009 0.67182446 10197915
0.18848501 0.10000009 0.67182446 10197915
0.18969713 0.10000009 0.67182446 10197915
0.19090925 0.10000009 0.67182446 10197915
0.19212139 0.10000009 0.67182446 10197915
0.19333351 0.10000009 0.67182446 10197915
0.19454563 0.10000009 0.67182446 10197915
0.19575775 0.10000009 0.67182446 10197915
0.19696987 0.10000009 0.67182446 10197915
0.19818199 0.10000009 0.67182446 10197915
0.19939411 0.10000009 0.67182446 10197915
-0.15855916 0.074589804 0.49511075 6710886
-0.15712637 0.074334569 0.49341658 6710886
-0.15593787 0.074192658 0.49247459 6710886
-0.15483902 0.074092023 0.49180663 6710886
-0.1537862 0.074012376 0.49127793 6710886
-0.15276854 0.07394883 0.49085611 6710886
-0.15177269 0.073895156 0.49049985 6710886
-0.15079774 0.073851094 0.49020737 6710886
-0.14983442 0.073812239 0.48994946 6710886
-0.14888868 0.073781632 0.4897463 6710886
-0.14794703 0.073752701 0.48955426 6710886
-0.14702089 0.073731199 0.48941153 6710886
-0.14609647 0.0737103 0.4892728 6710886
-0.14518319 0.07369481 0.48917001 6710886
-0.1442727 0.073680557 0.48907536 6710886
-0.14337011 0.073670179 0.48900649 6710886
-0.14246829 0.073660068 0.4889394 6710886
-0.14157492 0.073654242 0.48890069 6710886
-0.14068274 0.073648959 0.48886564 6710886
-0.13796529 0.07268203 0.48244739 6710886
-0.1369219 0.072590336 0.48183873 6710886
-0.13602015 0.072573058 0.48172402 6710886
-0.13515086 0.072572976 0.48172349 6710886
-0.13428158 0.072572887 0.48172292 6710886
-0.13341229 0.072572805 0.48172238 6710886
-0.132543 0.072572723 0.48172182 6710886
-0.13167371 0.072572641 0.48172128 6710886
-0.13080449 0.072572589 0.48172095 6710886
-0.12993534 0.072572581 0.48172086 6710886
-0.12906617 0.072572559 0.48172075 6710886
-0.128197 0.072572544 0.48172063 6710886
-0.12732784 0.072572529 0.48172054 6710886
-0.12645869 0.072572514 0.48172042 6710886
-0.12558952 0.072572492 0.4817203 6710886
-0.12472036 0.072572477 0.48172018 6710886
-0.12385121 0.072572462 0.48172009 6710886
-0.12298204 0.07257244 0.48171994 6710886
-0.12211286 0.07257241 0.48171976 6710886
-0.12124371 0.072572403 0.48171967 6710886
-0.12037455 0.07257238 0.48171955 6710886
-0.11950539 0.072572365 0.48171943 6710886
-0.11863624 0.072572351 0.48171934 6710886
-0.11776347 0.072570108 0.48170447 6710886
-0.11679797 0.072510265 0.48130724 6710886
-0.11467806 0.071727477 0.47611126 6710886
-0.11263911 0.070983887 0.47117549 6710886
-0.11099295 0.07047841 0.46782023 6710886
-0.10953233 0.070083909 0.46520162 6710886
-0.1081758 0.069750421 0.46298799 6710886
-0.10688466 0.06945423 0.46102196 6710886
-0.10564799 0.069189072 0.45926189 6710886
-0.10446592 0.068955764 0.45771325 6710886
-0.10330333 0.068731695 0.45622593 6710886
-0.10218952 0.068536744 0.45493189 6710886
-0.10108399 0.068344235 0.45365405 6710886
-0.10001735 0.068175085 0.45253128 6710886
-0.098955974 0.068006784 0.45141411 6710886
-0.097924553 0.067856431 0.45041612 6710886
-0.096901447 0.067709379 0.44944 6710886
-0.095894173 0.067570999 0.44852149 6710886
-0.09490338 0.067441978 0.44766504 6710886
-0.093916349 0.067313433 0.44681183 6710886
-0.092951074 0.067198396 0.4460482 6710886
-0.091991216 0.067085303 0.44529751 6710886
-0.09103664 0.066974089 0.44455934 6710886
-0.090100445 0.066874556 0.44389862 6710886
-0.089167029 0.066775307 0.44323984 6710886
-0.088238753 0.066678159 0.44259498 6710886
-0.087325729 0.066590853 0.44201547 6710886
-0.086415105 0.066503793 0.44143757 6710886
-0.085507177 0.066417202 0.44086283 6710886
-0.084614351 0.066340834 0.4403559 6710886
-0.083723582 0.066264637 0.43985012 6710886
-0.082834847 0.066188611 0.43934548 6710886
-0.081956506 0.0661195 0.43888673 6710886
-0.081083164 0.066053115 0.4384461 6710886
-0.08021158 0.065986864 0.43800634 6710886
-0.079344422 0.065922983 0.43758228 6710886
-0.078486487 0.065865546 0.43720105 6710886
-0.077630043 0.065808214 0.43682048 6710886
-0.076775089 0.065750971 0.43644053 6710886
-0.075927615 0.065699026 0.43609571 6710886
-0.075084612 0.065649897 0.43576962 6710886
-0.074242875 0.065600842 0.43544403 6710886
-0.07340239 0.06555187 0.43511891 6710886
-0.072570629 0.065509699 0.43483904 6710886
-0.071740687 0.065468274 0.43456405 6710886
-0.070911787 0.065426894 0.4342894 6710886
-0.070084214 0.065385833 0.43401682 6710886
-0.069264829 0.065351561 0.43378934 6710886
-0.068446293 0.065317318 0.43356204 6710886
-0.067628615 0.065283112 0.43333501 6710886
-0.066812158 0.065249301 0.43311054 6710886
-0.066002905 0.065221809 0.43292806 6710886
-0.065194346 0.065194346 0.43274578 6710886
-0.064386465 0.065166906 0.43256363 6710886
-0.063579254 0.06513948 0.4323816 6710886
-0.062778711 0.06511829 0.43224093 6710886
-0.061978847 0.06509728 0.43210146 6710886
-0.061179493 0.065076277 0.43196204 6710886
-0.060380656 0.065055288 0.43182275 6710886
-0.059586897 0.065039292 0.43171656 6710886
-0.05879458 0.065024473 0.43161818 6710886
-0.058002621 0.065009654 0.43151981 6710886
-0.057211027 0.064994842 0.43142149 6710886
-0.056422751 0.064983442 0.43134585 6710886
-0.055636946 0.064974613 0.43128726 6710886
-0.054851361 0.064965792 0.4312287 6710886
-0.054065976 0.064956963 0.43117008 6710886
-0.053282142 0.064949766 0.4311223 6710886
-0.052501895 0.064946786 0.43110254 6710886
-0.051721711 0.064943805 0.43108273 6710886
-0.050941605 0.064940825 0.43106297 6710886
-0.05016157 0.064937845 0.43104318 6710886
-0.049385738 0.064940304 0.43105948 6710886
-0.048610087 0.064943075 0.4310779 6710886
-0.047834374 0.064945854 0.43109635 6710886
-0.04705859 0.064948633 0.43111476 6710886
-0.046285134 0.064954765 0.4311555 6710886
-0.045513168 0.064963236 0.43121174 6710886
-0.044741012 0.06497173 0.4312681 6710886
-0.043968655 0.064980224 0.43132448 6710886
-0.043196924 0.064989969 0.43138915 6710886
-0.042427875 0.06500417 0.43148345 6710886
-0.04165848 0.065018371 0.43157771 6710886
-0.040888749 0.065032586 0.43167204 6710886
-0.040118694 0.06504681 0.43176648 6710886
-0.039351262 0.06506595 0.4318935 6710886
-0.038583871 0.065085925 0.43202609 6710886
-0.037815999 0.0651059 0.43215868 6710886
-0.037047666 0.065125898 0.43229142 6710886
-0.036280517 0.065148883 0.43244401 6710886
-0.03551437 0.065174721 0.43261552 6710886
-0.034747612 0.065200575 0.43278712 6710886
-0.033980243 0.065226443 0.43295881 6710886
-0.033212904 0.065253586 0.433139 6710886
-0.032447241 0.065285414 0.43335027 6710886
-0.031680834 0.065317273 0.43356174 6710886
-0.030913677 0.065349162 0.43377343 6710886
-0.030145772 0.065381087 0.43398532 6710886
-0.029379731 0.065418869 0.43423611 6710886
-0.028612912 0.065456934 0.43448877 6710886
-0.027845198 0.065495044 0.43474174 6710886
-0.027076595 0.065533206 0.43499506 6710886
-0.026309039 0.065576263 0.43528086 6710886
-0.02554103 0.065620795 0.43557647 6710886
-0.024771973 0.065665394 0.43587247 6710886
-0.024001872 0.065710045 0.43616885 6710886
-0.02323227 0.065759137 0.43649474 6710886
-0.022462249 0.065810449 0.43683532 6710886
-0.021691028 0.065861844 0.4371765 6710886
-0.020918598 0.06591332 0.43751818 6710886
-0.020146338 0.065969385 0.43789029 6710886
-0.01937345 0.066027887 0.43827862 6710886
-0.01859919 0.066086486 0.4386676 6710886
-0.017823556 0.066145197 0.43905732 6710886
-0.017047945 0.066209458 0.43948388 6710886
-0.016271261 0.066275626 0.43992308 6710886
-0.015493024 0.066341922 0.44036314 6710886
-0.014713231 0.066408366 0.44080415 6710886
-0.01393343 0.066482365 0.44129539 6710886
-0.013151941 0.066556789 0.44178939 6710886
-0.012368701 0.066631392 0.44228455 6710886
-0.011584152 0.066708736 0.44279796 6710886
-0.010798694 0.066791922 0.44335014 6710886
-0.010011278 0.066875339 0.44390383 6710886
-0.0092218928 0.066958964 0.4444589 6710886
-0.0084314272 0.067049921 0.44506267 6710886
-0.007639017 0.067142941 0.44568011 6710886
-0.0068444046 0.067236207 0.44629923 6710886
-0.0060479604 0.067333959 0.44694805 6710886
-0.0052496293 0.067437544 0.44763565 6710886
-0.0044488381 0.06754145 0.44832534 6710886
-0.0036457083 0.067648143 0.44903353 6710886
-0.0028403853 0.067763478 0.44979909 6710886
-0.0020323109 0.067879185 0.45056716 6710886
-0.0012215142 0.06799762 0.45135331 6710886
-0.00040794103 0.068126149 0.45220646 6710886
0.00040871356 0.068255164 0.45306283 6710886
0.0012285478 0.068389162 0.45395225 6710886
0.0020518776 0.068532705 0.45490509 6710886
0.002878671 0.068676867 0.45586199 6710886
0.003709492 0.068831682 0.45688963 6710886
0.004544422 0.068992585 0.45795766 6710886
0.0053834822 0.069157042 0.45904928 6710886
0.0062279059 0.069337353 0.46024615 6710886
0.0070767431 0.069518596 0.46144918 6710886
0.0079320706 0.069718726 0.46277761 6710886
0.0087927226 0.069923081 0.46413407 6710886
0.0096610133 0.070147358 0.46562278 6710886
0.010535858 0.070379533 0.46716389 6710886
0.011420657 0.07063888 0.46888539 6710886
0.012313695 0.070909895 0.47068435 6710886
0.01321994 0.071217097 0.47272348 6710886
0.01414006 0.071557276 0.47498149 6710886
0.015077313 0.071940325 0.4775241 6710886
0.016039126 0.072392814 0.48052761 6710886
0.017042032 0.072974853 0.48439109 6710886
0.018130761 0.073849685 0.49019802 7039851
0.025748536 0.10000013 0.6637789 10197915
0.026946142 0.10000013 0.6637789 10197915
0.028143747 0.10000013 0.6637789 10197915
0.029341353 0.10000013 0.6637789 10197915
0.030538959 0.10000013 0.6637789 10197915
0.031736568 0.10000013 0.6637789 10197915
0.032934174 0.10000013 0.6637789 10197915
0.03413178 0.10000013 0.6637789 10197915
0.035329387 0.10000013 0.6637789 10197915
0.036526993 0.10000013 0.6637789 10197915
0.037724599 0.10000013 0.6637789 10197915
0.038922206 0.10000013 0.6637789 10197915
0.040119812 0.10000013 0.6637789 10197915
0.041317418 0.10000013 0.6637789 10197915
0.042515025 0.10000013 0.6637789 10197915
0.043712631 0.10000013 0.6637789 10197915
0.044910237 0.10000013 0.6637789 10197915
0.046107844 0.10000013 0.6637789 10197915
0.04730545 0.10000013 0.6637789 10197915
0.048503056 0.10000013 0.6637789 10197915
0.049700662 0.10000013 0.6637789 10197915
0.050898269 0.10000013 0.6637789 10197915
0.052095875 0.10000013 0.6637789 10197915
0.053293481 0.10000013 0.6637789 10197915
0.054491084 0.10000013 0.6637789 10197915
0.05568869 0.10000013 0.6637789 10197915
0.056886297 0.10000013 0.6637789 10197915
0.058083903 0.10000013 0.6637789 10197915
0.059281509 0.10000013 0.6637789 10197915
0.060479116 0.10000013 0.6637789 10197915
0.061676722 0.10000013 0.6637789 10197915
0.062874332 0.10000013 0.6637789 10197915
0.064071938 0.10000013 0.6637789 10197915
0.065269545 0.10000013 0.6637789 10197915
0.066467151 0.10000013 0.6637789 10197915
0.067664757 0.10000013 0.6637789 10197915
0.068862364 0.10000013 0.6637789 10197915
0.07005997 0.10000013 0.6637789 10197915
0.071257576 0.10000013 0.6637789 10197915
0.072455183 0.10000013 0.6637789 10197915
0.073652789 0.10000013 0.6637789 10197915
0.074850395 0.10000013 0.6637789 10197915
0.076048002 0.10000013 0.6637789 10197915
0.077245608 0.10000013 0.6637789 10197915
0.078443214 0.10000013 0.6637789 10197915
0.079640821 0.10000013 0.6637789 10197915
0.080838427 0.10000013 0.6637789 10197915
0.082036003 0.10000009 0.66377866 10197915
0.08323361 0.10000009 0.66377866 10197915
0.084431216 0.10000009 0.66377866 10197915
0.085628815 0.10000009 0.66377866 10197915
0.086826421 0.10000009 0.66377866 10197915
0.088024028 0.10000009 0.66377866 10197915
0.089221634 0.10000009 0.66377866 10197915
0.09041924 0.10000009 0.66377866 10197915
0.091616847 0.10000009 0.66377866 10197915
0.092814453 0.10000009 0.66377866 10197915
0.094012059 0.10000009 0.66377866 10197915
0.095209666 0.10000009 0.66377866 10197915
0.096407272 0.10000009 0.66377866 10197915
0.097604878 0.10000009 0.66377866 10197915
0.098802485 0.10000009 0.66377866 10197915
0.10000009 0.10000009 0.66377866 10197915
0.1011977 0.10000009 0.66377866 10197915
0.1023953 0.10000009 0.66377866 10197915
0.10359291 0.10000009 0.66377866 10197915
0.10479051 0.10000009 0.66377866 10197915
0.10598812 0.10000009 0.66377866 10197915
0.10718572 0.10000009 0.66377866 10197915
0.10838333 0.10000009 0.66377866 10197915
0.10958093 0.10000009 0.66377866 10197915
0.11077854 0.10000009 0.66377866 10197915
0.11197615 0.10000009 0.66377866 10197915
0.11317375 0.10000009 0.66377866 10197915
0.11437136 0.10000009 0.66377866 10197915
0.11556897 0.10000009 0.66377866 10197915
0.11676657 0.10000009 0.66377866 10197915
0.11796418 0.10000009 0.66377866 10197915
0.11916178 0.10000009 0.66377866 10197915
0.12035939 0.10000009 0.66377866 10197915
0.121557 0.10000009 0.66377866 10197915
0.1227546 0.10000009 0.66377866 10197915
0.1239522 0.10000009 0.66377866 10197915
0.12514982 0.10000009 0.66377866 10197915
0.12634742 0.10000009 0.66377866 10197915
0.12754503 0.10000009 0.66377866 10197915
0.12874264 0.10000009 0.66377866 10197915
0.12994024 0.10000009 0.66377866 10197915
0.13113785 0.10000009 0.66377866 10197915
0.13233545 0.10000009 0.66377866 10197915
0.13353305 0.10000009 0.66377866 10197915
0.13473065 0.10000009 0.66377866 10197915
0.13592826 0.10000009 0.66377866 10197915
0.13712586 0.10000009 0.66377866 10197915
0.13832347 0.10000009 0.66377866 10197915
0.13952108 0.10000009 0.66377866 10197915
0.14071868 0.10000009 0.66377866 10197915
0.14191629 0.10000009 0.66377866 10197915
0.1431139 0.10000009 0.66377866 10197915
0.1443115 0.10000009 0.66377866 10197915
0.14550911 0.10000009 0.66377866 10197915
0.14670672 0.10000009 0.66377866 10197915
0.14790432 0.10000009 0.66377866 10197915
0.14910193 0.10000009 0.66377866 10197915
0.15029953 0.10000009 0.66377866 10197915
0.15149714 0.10000009 0.66377866 10197915
0.15269475 0.10000009 0.66377866 10197915
0.15389235 0.10000009 0.66377866 10197915
0.15508996 0.10000009 0.66377866 10197915
0.15628757 0.10000009 0.66377866 10197915
0.15748517 0.10000009 0.66377866 10197915
0.15868278 0.10000009 0.66377866 10197915
0.15988038 0.10000009 0.66377866 10197915
0.16107799 0.10000009 0.66377866 10197915
0.1622756 0.10000009 0.66377866 10197915
0.1634732 0.10000009 0.66377866 10197915
0.16467081 0.10000009 0.66377866 10197915
0.16586842 0.10000009 0.66377866 10197915
0.16706602 0.10000009 0.66377866 10197915
0.16826363 0.10000009 0.66377866 10197915
0.16946124 0.10000009 0.66377866 10197915
0.17065883 0.10000009 0.66377866 10197915
0.17185643 0.10000009 0.66377866 10197915
0.17305404 0.10000009 0.66377866 10197915
0.17425165 0.10000009 0.66377866 10197915
0.17544925 0.10000009 0.66377866 10197915
0.17664686 0.10000009 0.66377866 10197915
0.17784446 0.10000009 0.66377866 10197915
0.17904207 0.10000009 0.66377866 10197915
0.18023968 0.10000009 0.66377866 10197915
0.18143728 0.10000009 0.66377866 10197915
0.18263489 0.10000009 0.66377866 10197915
0.1838325 0.10000009 0.66377866 10197915
0.1850301 0.10000009 0.66377866 10197915
0.18622771 0.10000009 0.66377866 10197915
0.18742532 0.10000009 0.66377866 10197915
0.18862292 0.10000009 0.66377866 10197915
0.18982053 0.10000009 0.66377866 10197915
0.19101813 0.10000009 0.66377866 10197915
0.19221574 0.10000009 0.66377866 10197915
0.19341335 0.10000009 0.66377866 10197915
0.19461095 0.10000009 0.66377866 10197915
0.19580856 0.10000009 0.66377866 10197915
0.19700617 0.10000009 0.66377866 10197915
0.19820377 0.10000009 0.66377866 10197915
0.19940138 0.10000009 0.66377866 10197915
-0.15678261 0.075487919 0.49514243 6710886
-0.15540308 0.075252496 0.49359819 6710886
-0.15423641 0.07511802 0.49271616 6710886
-0.15314814 0.075020395 0.4920758 6710886
-0.15210421 0.074943475 0.49157128 6710886
-0.15109588 0.074883297 0.49117655 6710886
-0.15010685 0.07483203 0.49084026 6710886
-0.1491386 0.074790575 0.49056837 6710886
-0.14817911 0.074753046 0.4903222 6710886
-0.1472386 0.074724697 0.49013624 6710886
-0.14630105 0.074697517 0.48995796 6710886
-0.14537853 0.074677728 0.48982817 6710886
-0.14445837 0.074658915 0.48970476 6710886
-0.14354901 0.074645482 0.48961669 6710886
-0.14264084 0.074632518 0.48953164 6710886
-0.14174397 0.074625328 0.48948449 6710886
-0.1408475 0.074618272 0.48943818 6710886
-0.13807791 0.073612519 0.48284122 6710886
-0.13700478 0.07350415 0.48213041 6710886
-0.13609381 0.073481962 0.48198485 6710886
-0.13522407 0.073481888 0.48198441 6710886
-0.13435435 0.073481828 0.48198402 6710886
-0.13348463 0.073481768 0.48198363 6710886
-0.13261491 0.073481701 0.48198318 6710886
-0.1317452 0.073481642 0.4819828 6710886
-0.13087548 0.073481582 0.48198241 6710886
-0.13000578 0.07348153 0.48198202 6710886
-0.12913606 0.073481455 0.48198158 6710886
-0.12826635 0.073481396 0.48198119 6710886
-0.12739664 0.073481344 0.4819808 6710886
-0.12652703 0.073481329 0.48198074 6710886
-0.12565742 0.073481329 0.48198074 6710886
-0.12478782 0.073481329 0.48198074 6710886
-0.12391822 0.073481329 0.48198074 6710886
-0.12304862 0.073481329 0.48198074 6710886
-0.12217902 0.073481329 0.48198074 6710886
-0.12130941 0.073481329 0.48198074 6710886
-0.12043981 0.073481329 0.48198074 6710886
-0.11957021 0.073481329 0.48198074 6710886
-0.11870061 0.073481329 0.48198074 6710886
-0.11782676 0.073478684 0.48196337 6710886
-0.11685441 0.073414102 0.48153979 6710886
-0.11468163 0.072588749 0.47612607 6710886
-0.11264168 0.071835637 0.47118625 6710886
-0.11099496 0.07132376 0.46782872 6710886
-0.109534 0.070924312 0.46520868 6710886
-0.10817722 0.070586681 0.46299407 6710886
-0.10688589 0.070286825 0.46102726 6710886
-0.1056492 0.070018485 0.45926717 6710886
-0.104467 0.069782302 0.45771798 6710886
-0.1033043 0.069555484 0.45623019 6710886
-0.10219047 0.069358192 0.45493612 6710886
-0.10108485 0.069163322 0.45365793 6710886
-0.1000182 0.068992145 0.45253515 6710886
-0.098956816 0.068821818 0.45141795 6710886
-0.09792532 0.068669625 0.45041966 6710886
-0.096902207 0.068520807 0.44944352 6710886
-0.095894881 0.068380736 0.44852477 6710886
-0.094904065 0.068250157 0.44766828 6710886
-0.093917035 0.068120077 0.44681507 6710886
-0.092951693 0.068003617 0.44605118 6710886
-0.091991834 0.067889169 0.44530049 6710886
-0.091037206 0.067776598 0.44456211 6710886
-0.090101011 0.067675866 0.44390139 6710886
-0.08916758 0.067575425 0.44324258 6710886
-0.088239282 0.0674771 0.4425976 6710886
-0.087326236 0.067388743 0.44201806 6710886
-0.086415619 0.06730064 0.44144019 6710886
-0.085507654 0.067212991 0.44086528 6710886
-0.084614821 0.067135707 0.44035834 6710886
-0.083724044 0.067058593 0.43985257 6710886
-0.082835309 0.066981658 0.43934792 6710886
-0.08195693 0.066911697 0.43888903 6710886
-0.081083588 0.066844523 0.4384484 6710886
-0.080211997 0.066777475 0.43800864 6710886
-0.079344817 0.066712812 0.43758446 6710886
-0.078486875 0.066654682 0.4372032 6710886
-0.07763043 0.066596657 0.43682262 6710886
-0.076775461 0.066538736 0.43644267 6710886
-0.075927965 0.06648615 0.43609774 6710886
-0.075084969 0.06643644 0.43577167 6710886
-0.074243218 0.066386797 0.43544605 6710886
-0.073402733 0.066337228 0.43512094 6710886
-0.07257095 0.066294543 0.43484095 6710886
-0.071740992 0.066252612 0.43456593 6710886
-0.070912093 0.066210739 0.43429127 6710886
-0.070084512 0.06616918 0.43401867 6710886
-0.069265112 0.06613449 0.43379113 6710886
-0.068446577 0.066099837 0.43356386 6710886
-0.067628898 0.066065222 0.43333679 6710886
-0.066812426 0.066030994 0.43311229 6710886
-0.066003174 0.066003174 0.43292981 6710886
-0.065194607 0.065975383 0.43274751 6710886
-0.064386725 0.065947615 0.43256539 6710886
-0.063579515 0.065919861 0.43238336 6710886
-0.06277895 0.065898404 0.43224257 6710886
-0.061979081 0.06587714 0.4321031 6710886
-0.061179724 0.065855883 0.43196368 6710886
-0.060380887 0.065834641 0.43182439 6710886
-0.059587102 0.065818436 0.43171805 6710886
-0.058794785 0.065803438 0.43161967 6710886
-0.058002826 0.06578844 0.43152133 6710886
-0.057211228 0.06577345 0.43142301 6710886
-0.056422941 0.065761909 0.43134731 6710886
-0.055637132 0.065752976 0.43128869 6710886
-0.054851536 0.065744042 0.4312301 6710886
-0.054066155 0.065735109 0.43117151 6710886
-0.053282313 0.065727815 0.43112367 6710886
-0.052502062 0.065724805 0.43110391 6710886
-0.051721878 0.065721788 0.43108413 6710886
-0.050941773 0.065718777 0.43106437 6710886
-0.050161727 0.065715753 0.43104455 6710886
-0.04938589 0.065718234 0.43106082 6710886
-0.048610236 0.065721042 0.43107924 6710886
-0.047834519 0.065723851 0.43109766 6710886
-0.047058735 0.06572666 0.4311161 6710886
-0.04628526 0.065732852 0.43115669 6710886
-0.045513298 0.065741435 0.43121299 6710886
-0.044741143 0.065750025 0.43126935 6710886
-0.043968778 0.065758616 0.4313257 6710886
-0.04319704 0.065768465 0.43139032 6710886
-0.042427987 0.065782845 0.43148461 6710886
-0.041658588 0.06579721 0.43157884 6710886
-0.040888861 0.065811597 0.4316732 6710886
-0.040118799 0.065825991 0.43176761 6710886
-0.039351359 0.065845348 0.43189457 6710886
-0.038583964 0.065865554 0.43202713 6710886
-0.037816096 0.065885775 0.43215975 6710886
-0.037047759 0.065906011 0.43229249 6710886
-0.036280602 0.065929271 0.43244505 6710886
-0.035514452 0.065955408 0.4326165 6710886
-0.03474769 0.065981567 0.4327881 6710886
-0.033980317 0.066007748 0.43295979 6710886
-0.033212975 0.066035204 0.43313992 6710886
-0.032447312 0.06606742 0.43335119 6710886
-0.031680901 0.066099659 0.43356267 6710886
-0.030913742 0.066131927 0.43377435 6710886
-0.030145835 0.066164233 0.43398625 6710886
-0.029379791 0.066202462 0.43423697 6710886
-0.028612968 0.066240981 0.43448964 6710886
-0.027845254 0.066279545 0.4347426 6710886
-0.027076647 0.066318162 0.43499589 6710886
-0.026309088 0.066361733 0.43528166 6710886
-0.025541078 0.066406801 0.4355773 6710886
-0.02477202 0.066451922 0.43587327 6710886
-0.024001917 0.066497117 0.43616968 6710886
-0.023232309 0.066546783 0.43649545 6710886
-0.022462286 0.066598706 0.43683603 6710886
-0.021691063 0.066650718 0.43717721 6710886
-0.020918636 0.06670282 0.43751892 6710886
-0.020146366 0.066759527 0.43789092 6710886
-0.01937348 0.066818736 0.43827927 6710886
-0.018599218 0.066878043 0.43866825 6710886
-0.017823583 0.066937454 0.43905795 6710886
-0.017047964 0.067002468 0.43948439 6710886
-0.01627128 0.067069426 0.43992358 6710886
-0.015493042 0.067136511 0.44036365 6710886
-0.014713247 0.067203753 0.44080466 6710886
-0.013933445 0.067278638 0.44129586 6710886
-0.013151955 0.067353949 0.44178987 6710886
-0.012368714 0.067429446 0.44228503 6710886
-0.011584161 0.067507699 0.44279832 6710886
-0.010798703 0.067591883 0.44335049 6710886
-0.010011287 0.067676298 0.44390422 6710886
-0.0092219012 0.067760922 0.44445929 6710886
-0.0084314318 0.067852952 0.44506291 6710886
-0.0076390211 0.067947082 0.44568035 6710886
-0.0068444083 0.068041474 0.44629946 6710886
-0.0060479622 0.068140373 0.4469482 6710886
-0.0052496311 0.068245202 0.4476358 6710886
-0.004448839 0.068350345 0.44832546 6710886
-0.0036457083 0.068458296 0.44903353 6710886
-0.0028403853 0.068575017 0.44979909 6710886
-0.0020323109 0.06869211 0.45056716 6710886
-0.0012215137 0.068811946 0.45135316 6710886
-0.00040794091 0.06894201 0.45220631 6710886
0.00040871344 0.069072574 0.45306268 6710886
0.0012285468 0.069208138 0.4539519 6710886
0.0020518759 0.069353402 0.45490474 6710886
0.0028786687 0.069499291 0.45586163 6710886
0.0037094881 0.06965594 0.45688915 6710886
0.0045444169 0.069818765 0.45795715 6710886
0.0053834738 0.069985159 0.45904854 6710886
0.0062278961 0.070167631 0.46024543 6710886
0.0070767319 0.070351042 0.46144846 6710886
0.0079320539 0.070553534 0.46277666 6710886
0.0087927049 0.070760339 0.46413311 6710886
0.0096609872 0.070987254 0.4656215 6710886
0.010535829 0.071222201 0.46716261 6710886
0.011420616 0.071484596 0.46888369 6710886
0.012313638 0.071758784 0.47068217 6710886
0.013219881 0.072069675 0.47272137 6710886
0.014139978 0.072413824 0.47497874 6710886
0.0150772 0.072801337 0.4775205 6710886
0.016038967 0.073259071 0.48052287 6710886
0.017041817 0.073847875 0.48438498 6710886
0.018130396 0.074732609 0.49018815 7039851
0.025443818 0.10000013 0.65592355 10197915
0.026627252 0.10000013 0.65592355 10197915
0.027810685 0.10000013 0.65592355 10197915
0.028994119 0.10000013 0.65592355 10197915
0.030177552 0.10000013 0.65592355 10197915
0.031360988 0.10000013 0.65592355 10197915
0.032544419 0.10000013 0.65592355 10197915
0.033727854 0.10000013 0.65592355 10197915
0.034911286 0.10000013 0.65592355 10197915
0.036094721 0.10000013 0.65592355 10197915
0.037278153 0.10000013 0.65592355 10197915
0.038461588 0.10000013 0.65592355 10197915
0.03964502 0.10000013 0.65592355 10197915
0.040828455 0.10000013 0.65592355 10197915
0.042011887 0.10000013 0.65592355 10197915
0.043195322 0.10000013 0.65592355 10197915
0.044378754 0.10000013 0.65592355 10197915
0.045562189 0.10000013 0.65592355 10197915
0.046745621 0.10000013 0.65592355 10197915
0.047929056 0.10000013 0.65592355 10197915
0.049112488 0.10000013 0.65592355 10197915
0.050295923 0.10000013 0.65592355 10197915
0.051479355 0.10000013 0.65592355 10197915
0.05266279 0.10000013 0.65592355 10197915
0.053846221 0.10000013 0.65592355 10197915
0.055029657 0.10000013 0.65592355 10197915
0.056213088 0.10000013 0.65592355 10197915
0.057396524 0.10000013 0.65592355 10197915
0.058579955 0.10000013 0.65592355 10197915
0.059763391 0.10000013 0.65592355 10197915
0.060946822 0.10000013 0.65592355 10197915
0.062130257 0.10000013 0.65592355 10197915
0.063313693 0.10000013 0.65592355 10197915
0.064497121 0.10000013 0.65592355 10197915
0.065680556 0.10000013 0.65592355 10197915
0.066863991 0.10000013 0.65592355 10197915
0.068047427 0.10000013 0.65592355 10197915
0.069230855 0.10000013 0.65592355 10197915
0.07041429 0.10000013 0.65592355 10197915
0.071597725 0.10000013 0.65592355 10197915
0.07278116 0.10000013 0.65592355 10197915
0.073964588 0.10000013 0.65592355 10197915
0.075148024 0.10000013 0.65592355 10197915
0.076331459 0.10000013 0.65592355 10197915
0.077514894 0.10000013 0.65592355 10197915
0.078698322 0.10000013 0.65592355 10197915
0.079881757 0.10000013 0.65592355 10197915
0.081065163 0.10000009 0.65592331 10197915
0.082248598 0.10000009 0.65592331 10197915
0.083432026 0.10000009 0.65592331 10197915
0.084615462 0.10000009 0.65592331 10197915
0.085798897 0.10000009 0.65592331 10197915
0.086982325 0.10000009 0.65592331 10197915
0.08816576 0.10000009 0.65592331 10197915
0.089349195 0.10000009 0.65592331 10197915
0.090532623 0.10000009 0.65592331 10197915
0.091716059 0.10000009 0.65592331 10197915
0.092899494 0.10000009 0.65592331 10197915
0.094082929 0.10000009 0.65592331 10197915
0.095266357 0.10000009 0.65592331 10197915
0.096449792 0.10000009 0.65592331 10197915
0.097633228 0.10000009 0.65592331 10197915
0.098816656 0.10000009 0.65592331 10197915
0.10000009 0.10000009 0.65592331 10197915
0.10118353 0.10000009 0.65592331 10197915
0.10236695 0.10000009 0.65592331 10197915
0.10355039 0.10000009 0.65592331 10197915
0.10473382 0.10000009 0.65592331 10197915
0.10591725 0.10000009 0.65592331 10197915
0.10710069 0.10000009 0.65592331 10197915
0.10828412 0.10000009 0.65592331 10197915
0.10946756 0.10000009 0.65592331 10197915
0.11065099 0.10000009 0.65592331 10197915
0.11183442 0.10000009 0.65592331 10197915
0.11301786 0.10000009 0.65592331 10197915
0.11420128 0.10000009 0.65592331 10197915
0.11538472 0.10000009 0.65592331 10197915
0.11656816 0.10000009 0.65592331 10197915
0.11775158 0.10000009 0.65592331 10197915
0.11893502 0.10000009 0.65592331 10197915
0.12011845 0.10000009 0.65592331 10197915
0.12130188 0.10000009 0.65592331 10197915
0.12248532 0.10000009 0.65592331 10197915
0.12366875 0.10000009 0.65592331 10197915
0.12485219 0.10000009 0.65592331 10197915
0.12603562 0.10000009 0.65592331 10197915
0.12721905 0.10000009 0.65592331 10197915
0.12840249 0.10000009 0.65592331 10197915
0.12958592 0.10000009 0.65592331 10197915
0.13076934 0.10000009 0.65592331 10197915
0.13195278 0.10000009 0.65592331 10197915
0.13313621 0.10000009 0.65592331 10197915
0.13431965 0.10000009 0.65592331 10197915
0.13550308 0.10000009 0.65592331 10197915
0.13668652 0.10000009 0.65592331 10197915
0.13786995 0.10000009 0.65592331 10197915
0.13905337 0.10000009 0.65592331 10197915
0.14023681 0.10000009 0.65592331 10197915
0.14142025 0.10000009 0.65592331 10197915
0.14260368 0.10000009 0.65592331 10197915
0.14378712 0.10000009 0.65592331 10197915
0.14497055 0.10000009 0.65592331 10197915
0.14615397 0.10000009 0.65592331 10197915
0.14733741 0.10000009 0.65592331 10197915
0.14852084 0.10000009 0.65592331 10197915
0.14970428 0.10000009 0.65592331 10197915
0.15088771 0.10000009 0.65592331 10197915
0.15207115 0.10000009 0.65592331 10197915
0.15325458 0.10000009 0.65592331 10197915
0.154438 0.10000009 0.65592331 10197915
0.15562144 0.10000009 0.65592331 10197915
0.15680487 0.10000009 0.65592331 10197915
0.15798831 0.10000009 0.65592331 10197915
0.15917175 0.10000009 0.65592331 10197915
0.16035518 0.10000009 0.65592331 10197915
0.1615386 0.10000009 0.65592331 10197915
0.16272204 0.10000009 0.65592331 10197915
0.16390547 0.10000009 0.65592331 10197915
0.16508891 0.10000009 0.65592331 10197915
0.16627234 0.10000009 0.65592331 10197915
0.16745578 0.10000009 0.65592331 10197915
0.16863921 0.10000009 0.65592331 10197915
0.16982263 0.10000009 0.65592331 10197915
0.17100607 0.10000009 0.65592331 10197915
0.1721895 0.10000009 0.65592331 10197915
0.17337294 0.10000009 0.65592331 10197915
0.17455637 0.10000009 0.65592331 10197915
0.17573981 0.10000009 0.65592331 10197915
0.17692323 0.10000009 0.65592331 10197915
0.17810667 0.10000009 0.65592331 10197915
0.1792901 0.10000009 0.65592331 10197915
0.18047354 0.10000009 0.65592331 10197915
0.18165697 0.10000009 0.65592331 10197915
0.18284041 0.10000009 0.65592331 10197915
0.18402384 0.10000009 0.65592331 10197915
0.18520726 0.10000009 0.65592331 10197915
0.1863907 0.10000009 0.65592331 10197915
0.18757413 0.10000009 0.65592331 10197915
0.18875757 0.10000009 0.65592331 10197915
0.189941 0.10000009 0.65592331 10197915
0.19112444 0.10000009 0.65592331 10197915
0.19230786 0.10000009 0.65592331 10197915
0.19349129 0.10000009 0.65592331 10197915
0.19467473 0.10000009 0.65592331 10197915
0.19585817 0.10000009 0.65592331 10197915
0.1970416 0.10000009 0.65592331 10197915
0.19822504 0.10000009 0.65592331 10197915
0.19940847 0.10000009 0.65592331 10197915
-0.1552528 0.076507866 0.49596307 6710886
-0.15378165 0.076222211 0.4941113 6710886
-0.15260458 0.076079831 0.49318835 6710886
-0.15151979 0.075982064 0.49255458 6710886
-0.15047638 0.075904019 0.49204862 6710886
-0.14947386 0.075845785 0.49167114 6710886
-0.14848618 0.075794436 0.49133828 6710886
-0.14752179 0.075754434 0.49107894 6710886
-0.14656648 0.075718641 0.4908469 6710886
-0.14562872 0.075691521 0.49067113 6710886
-0.14469653 0.075666994 0.49051213 6710886
-0.14377783 0.075649261 0.49039716 6710886
-0.1428607 0.075632133 0.49028611 6710886
-0.14195716 0.075622045 0.49022073 6710886
-0.14105581 0.075612985 0.49016201 6710886
-0.13822541 0.074563235 0.48335698 6710886
-0.1371067 0.074429356 0.48248911 6710886
-0.13618286 0.074400216 0.48230022 6710886
-0.1353125 0.074400119 0.4822996 6710886
-0.13444228 0.074400105 0.48229948 6710886
-0.13357207 0.074400075 0.48229933 6710886
-0.13270186 0.07440006 0.48229921 6710886
-0.13183165 0.074400038 0.48229906 6710886
-0.13096143 0.074400015 0.48229894 6710886
-0.13009121 0.074399993 0.48229876 6710886
-0.12922101 0.07439997 0.48229864 6710886
-0.12835079 0.074399948 0.48229849 6710886
-0.12748058 0.074399933 0.48229837 6710886
-0.12661038 0.074399911 0.48229825 6710886
-0.12574017 0.074399889 0.48229811 6710886
-0.12486996 0.074399874 0.48229799 6710886
-0.12399974 0.074399851 0.48229784 6710886
-0.12312955 0.074399829 0.48229772 6710886
-0.12225933 0.074399799 0.48229754 6710886
-0.12138913 0.074399792 0.48229745 6710886
-0.12051891 0.074399762 0.48229727 6710886
-0.11964872 0.074399754 0.48229721 6710886
-0.11877858 0.074399769 0.48229733 6710886
-0.11790294 0.07439632 0.48227498 6710886
-0.1169235 0.074326836 0.48182455 6710886
-0.1146852 0.073450074 0.47614089 6710886
-0.11264426 0.072687425 0.47119704 6710886
-0.110997 0.072169147 0.4678373 6710886
-0.10953568 0.071764752 0.4652158 6710886
-0.10817864 0.071422964 0.46300015 6710886
-0.10688712 0.07111945 0.4610326 6710886
-0.10565042 0.070847929 0.45927247 6710886
-0.10446808 0.070608862 0.45772272 6710886
-0.10330526 0.07037928 0.45623446 6710886
-0.10219142 0.070179649 0.45494035 6710886
-0.10108572 0.069982424 0.45366183 6710886
-0.10001905 0.069809213 0.452539 6710886
-0.098957665 0.069636874 0.4514218 6710886
-0.097926088 0.069482826 0.45042318 6710886
-0.096902959 0.069332242 0.44944704 6710886
-0.095895573 0.069190472 0.44852802 6710886
-0.094904751 0.069058351 0.44767153 6710886
-0.093917713 0.068926729 0.44681829 6710886
-0.092952326 0.068808861 0.44605422 6710886
-0.09199246 0.068693057 0.4453035 6710886
-0.091037787 0.068579122 0.44456494 6710886
-0.090101585 0.068477206 0.44390422 6710886
-0.089168146 0.068375573 0.44324541 6710886
-0.088239804 0.068276048 0.44260022 6710886
-0.087326758 0.068186648 0.44202068 6710886
-0.086416125 0.068097502 0.44144279 6710886
-0.08550813 0.068008795 0.44086775 6710886
-0.08461529 0.067930587 0.44036078 6710886
-0.083724514 0.067852564 0.43985501 6710886
-0.082835771 0.06777472 0.43935037 6710886
-0.081957363 0.06770391 0.43889132 6710886
-0.081084013 0.067635939 0.43845069 6710886
-0.080212414 0.067568094 0.4380109 6710886
-0.079345211 0.06750264 0.43758661 6710886
-0.078487262 0.067443825 0.43720534 6710886
-0.07763081 0.067385115 0.43682477 6710886
-0.076775841 0.067326508 0.43644482 6710886
-0.075928316 0.067273274 0.43609974 6710886
-0.075085305 0.067222968 0.43577364 6710886
-0.07424356 0.067172743 0.43544805 6710886
-0.073403068 0.067122594 0.43512294 6710886
-0.07257127 0.067079388 0.43484288 6710886
-0.071741313 0.067036964 0.43456787 6710886
-0.070912406 0.0669946 0.43429321 6710886
-0.07008481 0.066952527 0.43402049 6710886
-0.06926541 0.066917427 0.43379298 6710886
-0.068446867 0.066882364 0.43356568 6710886
-0.067629181 0.066847339 0.43333861 6710886
-0.066812687 0.066812687 0.43311399 6710886
-0.066003434 0.066784538 0.43293151 6710886
-0.065194868 0.06675642 0.43274921 6710886
-0.064386971 0.066728316 0.43256706 6710886
-0.06357976 0.066700242 0.43238506 6710886
-0.062779181 0.066678509 0.43224418 6710886
-0.061979312 0.066656992 0.43210471 6710886
-0.061179951 0.066635489 0.43196529 6710886
-0.060381111 0.066614002 0.431826 6710886
-0.059587315 0.066597588 0.4317196 6710886
-0.058795001 0.066582419 0.43162125 6710886
-0.058003034 0.066567242 0.43152288 6710886
-0.057211433 0.066552073 0.43142456 6710886
-0.056423131 0.066540383 0.43134877 6710886
-0.055637319 0.066531338 0.43129015 6710886
-0.054851722 0.0665223 0.43123156 6710886
-0.054066338 0.066513263 0.43117297 6710886
-0.053282481 0.066505872 0.43112504 6710886
-0.05250223 0.066502824 0.43110529 6710886
-0.051722042 0.06649977 0.4310855 6710886
-0.050941933 0.066496722 0.43106574 6710886
-0.050161887 0.066493668 0.43104592 6710886
-0.049386039 0.066496164 0.4310621 6710886
-0.048610382 0.066499002 0.43108052 6710886
-0.047834665 0.066501848 0.43109897 6710886
-0.047058873 0.066504687 0.43111739 6710886
-0.046285395 0.066510946 0.43115795 6710886
-0.045513432 0.066519633 0.43121424 6710886
-0.044741273 0.066528328 0.4312706 6710886
-0.043968908 0.066537015 0.43132696 6710886
-0.043197155 0.066546969 0.43139145 6710886
-0.042428095 0.066561505 0.43148571 6710886
-0.0416587 0.066576049 0.43157998 6710886
-0.040888965 0.0665906 0.4316743 6710886
-0.040118903 0.066605173 0.43176875 6710886
-0.03935146 0.066624753 0.43189567 6710886
-0.038584065 0.066645205 0.43202826 6710886
-0.037816193 0.066665657 0.43216085 6710886
-0.037047852 0.066686131 0.43229359 6710886
-0.036280684 0.066709645 0.432446 6710886
-0.035514537 0.06673611 0.43261755 6710886
-0.034747772 0.066762574 0.43278912 6710886
-0.033980399 0.066789061 0.43296081 6710886
-0.033213045 0.066816837 0.43314087 6710886
-0.032447379 0.066849418 0.43335208 6710886
-0.031680968 0.066882044 0.43356359 6710886
-0.030913809 0.0669147 0.43377528 6710886
-0.030145897 0.066947386 0.43398714 6710886
-0.029379848 0.066986054 0.43423784 6710886
-0.028613025 0.067025028 0.4344905 6710886
-0.027845308 0.067064054 0.43474346 6710886
-0.027076701 0.067103125 0.43499675 6710886
-0.026309136 0.067147195 0.43528244 6710886
-0.025541121 0.0671928 0.43557805 6710886
-0.024772063 0.067238458 0.43587404 6710886
-0.02400196 0.067284182 0.43617046 6710886
-0.023232345 0.067334421 0.43649614 6710886
-0.02246232 0.067386962 0.43683672 6710886
-0.021691097 0.067439593 0.4371779 6710886
-0.020918667 0.067492306 0.43751961 6710886
-0.020146396 0.067549683 0.43789154 6710886
-0.019373508 0.067609586 0.4382799 6710886
-0.018599244 0.067669593 0.43866888 6710886
-0.017823609 0.067729712 0.4390586 6710886
-0.017047985 0.067795478 0.43948492 6710886
-0.016271301 0.067863226 0.43992412 6710886
-0.015493061 0.067931116 0.44036421 6710886
-0.014713266 0.067999147 0.44080523 6710886
-0.013933458 0.068074897 0.44129628 6710886
-0.013151968 0.068151101 0.44179028 6710886
-0.012368726 0.068227492 0.44228545 6710886
-0.011584169 0.068306655 0.44279864 6710886
-0.01079871 0.068391837 0.44335082 6710886
-0.010011294 0.068477251 0.44390455 6710886
-0.0092219077 0.06856288 0.44445962 6710886
-0.0084314365 0.068655983 0.44506314 6710886
-0.0076390253 0.068751231 0.44568059 6710886
-0.0068444121 0.068846732 0.4462997 6710886
-0.0060479636 0.068946786 0.44694829 6710886
-0.0052496321 0.069052853 0.44763589 6710886
-0.0044488404 0.069159247 0.44832557 6710886
-0.0036457083 0.069268458 0.44903353 6710886
-0.0028403853 0.069386549 0.44979909 6710886
-0.0020323109 0.069505036 0.45056716 6710886
-0.0012215134 0.069626264 0.45135301 6710886
-0.00040794077 0.069757871 0.45220616 6710886
0.0004087133 0.069889978 0.45306253 6710886
0.001228546 0.07002712 0.4539516 6710886
0.0020518745 0.070174113 0.45490444 6710886
0.0028786669 0.070321724 0.45586133 6710886
0.0037094839 0.070480198 0.45688865 6710886
0.0045444118 0.070644945 0.45795664 6710886
0.0053834654 0.070813276 0.45904782 6710886
0.0062278858 0.070997901 0.46024466 6710886
0.0070767207 0.07118348 0.46144772 6710886
0.0079320362 0.071388327 0.46277562 6710886
0.0087926844 0.071597576 0.46413207 6710886
0.0096609592 0.071827136 0.46562019 6710886
0.010535799 0.072064869 0.4671613 6710886
0.011420575 0.072330311 0.46888202 6710886
0.012313582 0.072607674 0.47068006 6710886
0.01321982 0.072922237 0.47271919 6710886
0.014139896 0.073270373 0.474976 6710886
0.015077087 0.073662341 0.47751692 6710886
0.016038809 0.074125312 0.48051813 6710886
0.017041603 0.074720874 0.4843789 6710886
0.01813003 0.075615495 0.49017829 7039851
0.025146229 0.10000012 0.64825189 10197915
0.026315821 0.10000012 0.64825189 10197915
0.027485413 0.10000012 0.64825189 10197915
0.028655006 0.10000012 0.64825189 10197915
0.029824598 0.10000012 0.64825189 10197915
0.03099419 0.10000012 0.64825189 10197915
0.03216378 0.10000012 0.64825189 10197915
0.033333372 0.10000012 0.64825189 10197915
0.034502964 0.10000012 0.64825189 10197915
0.035672557 0.10000012 0.64825189 10197915
0.036842149 0.10000012 0.64825189 10197915
0.038011741 0.10000012 0.64825189 10197915
0.039181333 0.10000012 0.64825189 10197915
0.040350925 0.10000012 0.64825189 10197915
0.041520517 0.10000012 0.64825189 10197915
0.042690109 0.10000012 0.64825189 10197915
0.043859702 0.10000012 0.64825189 10197915
0.045029294 0.10000012 0.64825189 10197915
0.046198886 0.10000012 0.64825189 10197915
0.047368478 0.10000012 0.64825189 10197915
0.04853807 0.10000012 0.64825189 10197915
0.049707662 0.10000012 0.64825189 10197915
0.050877254 0.10000012 0.64825189 10197915
0.052046847 0.10000012 0.64825189 10197915
0.053216439 0.10000012 0.64825189 10197915
0.054386031 0.10000012 0.64825189 10197915
0.055555623 0.10000012 0.64825189 10197915
0.056725215 0.10000012 0.64825189 10197915
0.057894807 0.10000012 0.64825189 10197915
0.059064399 0.10000012 0.64825189 10197915
0.060233992 0.10000012 0.64825189 10197915
0.061403584 0.10000012 0.64825189 10197915
0.062573172 0.10000012 0.64825189 10197915
0.063742764 0.10000012 0.64825189 10197915
0.064912356 0.10000012 0.64825189 10197915
0.066081949 0.10000012 0.64825189 10197915
0.067251541 0.10000012 0.64825189 10197915
0.068421133 0.10000012 0.64825189 10197915
0.069590725 0.10000012 0.64825189 10197915
0.070760317 0.10000012 0.64825189 10197915
0.071929909 0.10000012 0.64825189 10197915
0.073099501 0.10000012 0.64825189 10197915
0.074269094 0.10000012 0.64825189 10197915
0.075438686 0.10000012 0.64825189 10197915
0.076608278 0.10000012 0.64825189 10197915
0.07777787 0.10000012 0.64825189 10197915
0.078947462 0.10000012 0.64825189 10197915
0.080117032 0.10000009 0.64825171 10197915
0.081286624 0.10000009 0.64825171 10197915
0.082456216 0.10000009 0.64825171 10197915
0.083625808 0.10000009 0.64825171 10197915
0.084795401 0.10000009 0.64825171 10197915
0.085964993 0.10000009 0.64825171 10197915
0.087134585 0.10000009 0.64825171 10197915
0.088304177 0.10000009 0.64825171 10197915
0.089473769 0.10000009 0.64825171 10197915
0.090643361 0.10000009 0.64825171 10197915
0.091812953 0.10000009 0.64825171 10197915
0.092982545 0.10000009 0.64825171 10197915
0.094152138 0.10000009 0.64825171 10197915
0.09532173 0.10000009 0.64825171 10197915
0.096491322 0.10000009 0.64825171 10197915
0.097660914 0.10000009 0.64825171 10197915
0.098830506 0.10000009 0.64825171 10197915
0.10000009 0.10000009 0.64825171 10197915
0.10116968 0.10000009 0.64825171 10197915
0.10233928 0.10000009 0.64825171 10197915
0.10350887 0.10000009 0.64825171 10197915
0.10467846 0.10000009 0.64825171 10197915
0.10584805 0.10000009 0.64825171 10197915
0.10701764 0.10000009 0.64825171 10197915
