# .PCD v0.7 - Point Cloud Data file format
VERSION 0.7
FIELDS x y z rgb
SIZE 4 4 4 4
TYPE F F F U
COUNT 1 1 1 1
WIDTH 1097
HEIGHT 1
VIEWPOINT 0 0 0 1 0 0 0
POINTS 1097
DATA ascii
0.0096666543 0.036565173 0.46589467 6710886
0.010542071 0.036686409 0.46743941 6710886
0.011427675 0.036822513 0.46917355 6710886
0.012321649 0.036964945 0.47098839 6710886
0.013228612 0.037125461 0.47303358 6710886
0.014149973 0.037304476 0.4753145 6710886
0.015088831 0.037506524 0.47788888 6710886
0.016052876 0.037745949 0.48093954 6710886
0.017058106 0.0380527 0.48484799 6710886
0.018156538 0.038527288 0.49089494 7237230
-0.11468862 0.03822954 0.4761551 6710886
-0.11266117 0.037837148 0.47126779 6710886
-0.11101979 0.037569433 0.46793339 6710886
-0.10956158 0.037360076 0.4653258 6710886
-0.10820638 0.03718289 0.46311888 6710886
-0.10691603 0.037025392 0.46115726 6710886
-0.10568036 0.03688452 0.45940265 6710886
-0.10449848 0.036760334 0.45785591 6710886
-0.10333597 0.036641043 0.45637009 6710886
-0.10222267 0.03653742 0.45507947 6710886
-0.10111701 0.036434874 0.45380226 6710886
-0.1000507 0.036344949 0.45268223 6710886
-0.098989673 0.036255479 0.45156783 6710886
-0.097957939 0.03617534 0.45056969 6710886
-0.096935034 0.036097147 0.44959581 6710886
-0.095927373 0.03602336 0.44867676 6710886
-0.094936706 0.035954751 0.44782224 6710886
-0.093949787 0.035886399 0.44697091 6710886
-0.092984051 0.035825022 0.44620645 6710886
-0.092024259 0.035764884 0.44545743 6710886
-0.091069244 0.035705563 0.44471857 6710886
-0.090133049 0.03565263 0.44405925 6710886
-0.089199625 0.03559985 0.4434019 6710886
-0.088270895 0.035548009 0.44275618 6710886
-0.087357849 0.035501592 0.44217807 6710886
-0.086447172 0.035455294 0.4416014 6710886
-0.085538879 0.035409115 0.44102627 6710886
-0.084645867 0.035368461 0.4405199 6710886
-0.083755016 0.035327949 0.44001529 6710886
-0.082866214 0.035287526 0.43951184 6710886
-0.081987366 0.035250604 0.43905199 6710886
-0.081113912 0.035215311 0.43861237 6710886
-0.080242209 0.035180084 0.43817362 6710886
-0.079374582 0.035145961 0.43774861 6710886
-0.078516506 0.035115425 0.43736827 6710886
-0.07765992 0.03508494 0.43698859 6710886
-0.076804824 0.035054512 0.4366096 6710886
-0.075956859 0.035026737 0.43626368 6710886
-0.075113706 0.03500063 0.43593848 6710886
-0.074271813 0.034974556 0.43561375 6710886
-0.073431171 0.034948524 0.43528953 6710886
-0.072598927 0.034925967 0.43500859 6710886
-0.071768798 0.034903951 0.43473434 6710886
-0.070939727 0.034881964 0.43446052 6710886
-0.070111707 0.034860011 0.43418708 6710886
-0.069292121 0.034841802 0.43396026 6710886
-0.068473391 0.034823608 0.43373367 6710886
-0.067655519 0.034805439 0.43350738 6710886
-0.066838615 0.034787349 0.43328208 6710886
-0.066029169 0.034772757 0.43310031 6710886
-0.065220825 0.034758404 0.43292156 6710886
-0.064413533 0.03474427 0.43274549 6710886
-0.063606896 0.034730144 0.43256956 6710886
-0.062802404 0.034716856 0.43240404 6710886
-0.062002335 0.03470571 0.43226522 6710886
-0.061204463 0.034695525 0.43213835 6710886
-0.06040756 0.03468563 0.43201515 6710886
-0.059611112 0.034675743 0.43189201 6710886
-0.058816593 0.034666736 0.43177977 6710886
-0.05802444 0.034658894 0.43168211 6710886
-0.057235565 0.034652825 0.43160653 6710886
-0.056447331 0.03464698 0.43153375 6710886
-0.055659365 0.034641143 0.43146104 6710886
-0.054872572 0.034635879 0.43139547 6710886
-0.054086972 0.034631226 0.43133754 6710886
-0.053305484 0.03462911 0.43131116 6710886
-0.05252438 0.034627184 0.43128717 6710886
-0.05174337 0.034625262 0.43126324 6710886
-0.050962713 0.034623522 0.43124157 6710886
-0.050182428 0.034621984 0.43122241 6710886
-0.049406197 0.034623239 0.43123806 6710886
-0.048630465 0.034624893 0.43125862 6710886
-0.04785502 0.034626804 0.43128243 6710886
-0.047079489 0.034628715 0.43130624 6710886
-0.046303868 0.034630623 0.43133003 6710886
-0.045531165 0.034634817 0.43138227 6710886
-0.044759169 0.034639705 0.43144313 6710886
-0.043988008 0.034645423 0.43151432 6710886
-0.043216586 0.034651134 0.43158549 6710886
-0.042444907 0.034656852 0.43165669 6710886
-0.041674804 0.034664091 0.43174684 6710886
-0.040905312 0.034672119 0.43184686 6710886
-0.040137198 0.034681655 0.43196562 6710886
-0.039368656 0.034691192 0.43208441 6710886
-0.038599692 0.034700736 0.43220326 6710886
-0.037831251 0.034711145 0.43233293 6710886
-0.037063166 0.034722336 0.43247229 6710886
-0.036296912 0.034735754 0.43263945 6710886
-0.035530061 0.03474918 0.43280667 6710886
-0.034762621 0.034762621 0.43297404 6710886
-0.033994868 0.03477636 0.43314517 6710886
-0.033227168 0.034790799 0.43332502 6710886
-0.032461219 0.034807812 0.43353692 6710886
-0.03169452 0.034824844 0.43374905 6710886
-0.030927075 0.034841895 0.43396142 6710886
-0.030158874 0.034858957 0.43417394 6710886
-0.029392479 0.034879074 0.43442452 6710886
-0.028625369 0.034899425 0.43467796 6710886
-0.027857361 0.034919791 0.43493164 6710886
-0.027088456 0.034940183 0.43518561 6710886
-0.026320549 0.034963116 0.43547127 6710886
-0.025552241 0.034986913 0.43576768 6710886
-0.024782881 0.035010736 0.43606439 6710886
-0.024012472 0.035034589 0.43636149 6710886
-0.023242524 0.035060756 0.43668738 6710886
-0.022472195 0.035088167 0.43702877 6710886
-0.021700662 0.035115618 0.43737069 6710886
-0.020927921 0.035143111 0.43771315 6710886
-0.02015532 0.035173006 0.4380855 6710886
-0.019382112 0.035204247 0.43847457 6710886
-0.018607534 0.035235547 0.43886441 6710886
-0.017831577 0.035266899 0.43925491 6710886
-0.017055623 0.035301175 0.43968183 6710886
-0.016278617 0.035336509 0.44012195 6710886
-0.015500051 0.035371911 0.44056287 6710886
-0.014719924 0.035407383 0.44100469 6710886
-0.013939782 0.035446875 0.44149655 6710886
-0.013157962 0.035486627 0.44199166 6710886
-0.012374382 0.035526451 0.44248769 6710886
-0.011589488 0.035567738 0.44300193 6710886
-0.010803688 0.035612158 0.44355518 6710886
-0.010015924 0.035656691 0.44410986 6710886
-0.0092261881 0.035701334 0.44466591 6710886
-0.0084353723 0.035749909 0.4452709 6710886
-0.0076426039 0.035799567 0.44588938 6710886
-0.0068476321 0.035849366 0.44650966 6710886
-0.0060508307 0.035901595 0.44716018 6710886
-0.0052521313 0.035956897 0.44784898 6710886
-0.0044509671 0.03601237 0.44853988 6710886
-0.0036474662 0.036069386 0.44925004 6710886
-0.0028417611 0.036130961 0.45001698 6710886
-0.0020333005 0.036192749 0.45078653 6710886
-0.0012221148 0.036256071 0.45157522 6710886
-0.00040814257 0.036324687 0.45242986 6710886
0.00040891656 0.036393575 0.45328784 6710886
0.0012291655 0.036465243 0.45418048 6710886
0.0020529153 0.03654189 0.45513517 6710886
0.0028801351 0.036618859 0.45609382 6710886
0.0037114089 0.036701709 0.45712572 6710886
0.0045467857 0.036787629 0.45819587 6710886
0.005386339 0.036875706 0.45929289 6710886
0.0062312339 0.036971986 0.46049207 6710886
0.0070805531 0.037068777 0.46169761 6710886
0.0079364525 0.037176013 0.46303326 6710886
0.0087976223 0.037285164 0.46439272 6710886
0.0096665667 0.037405413 0.46589044 6710886
0.010541975 0.037529431 0.46743515 6710886
0.011427564 0.037668634 0.46916893 6710886
0.012321515 0.037814304 0.47098327 6710886
0.013228468 0.037978504 0.47302839 6710886
0.014149801 0.038161583 0.47530869 6710886
0.01508862 0.038368203 0.47788218 6710886
0.016052611 0.038613036 0.48093161 6710886
0.017057762 0.038926687 0.48483816 6710886
0.018155802 0.039411377 0.49087507 7237230
-0.11469009 0.039089128 0.47616118 6710886
-0.11266208 0.038687732 0.4712716 6710886
-0.1110204 0.038413901 0.46793595 6710886
-0.10956197 0.038199767 0.4653275 6710886
-0.10820665 0.038018554 0.46312004 6710886
-0.1069162 0.037857488 0.46115804 6710886
-0.10568054 0.037713449 0.45940343 6710886
-0.10449858 0.037586447 0.45785636 6710886
-0.10333601 0.037464451 0.45637029 6710886
-0.10222271 0.0373585 0.45507964 6710886
-0.10111701 0.037253637 0.45380226 6710886
-0.1000507 0.037161686 0.45268217 6710886
-0.098989658 0.0370702 0.45156774 6710886
-0.097957894 0.036988251 0.45056948 6710886
-0.096934989 0.036908302 0.4495956 6710886
-0.095927313 0.03683285 0.44867647 6710886
-0.094936632 0.036762696 0.44782192 6710886
-0.09394972 0.036692809 0.44697058 6710886
-0.092983961 0.036630046 0.44620603 6710886
-0.09202417 0.036568556 0.44545701 6710886
-0.091069132 0.03650789 0.444718 6710886
-0.090132937 0.036453765 0.44405869 6710886
-0.089199513 0.0363998 0.44340134 6710886
-0.088270761 0.036346786 0.44275552 6710886
-0.087357722 0.036299326 0.44217741 6710886
-0.086447045 0.036251988 0.44160074 6710886
-0.085538752 0.036204774 0.44102561 6710886
-0.084645726 0.036163196 0.44051915 6710886
-0.083754875 0.036121771 0.44001451 6710886
-0.082866058 0.036080439 0.43951103 6710886
-0.08198721 0.036042687 0.43905115 6710886
-0.081113763 0.036006596 0.43861154 6710886
-0.080242068 0.03597058 0.43817282 6710886
-0.079374418 0.035935681 0.43774769 6710886
-0.078516342 0.03590446 0.43736735 6710886
-0.077659763 0.03587329 0.4369877 6710886
-0.076804668 0.035842177 0.43660867 6710886
-0.07595668 0.035813771 0.43626267 6710886
-0.075113535 0.035787076 0.43593746 6710886
-0.074271642 0.035760421 0.43561277 6710886
-0.073431 0.035733804 0.43528852 6710886
-0.072598755 0.035710737 0.43500757 6710886
-0.071768634 0.035688229 0.43473336 6710886
-0.070939571 0.035665751 0.43445954 6710886
-0.070111543 0.035643298 0.43418604 6710886
-0.069291942 0.035624668 0.43395913 6710886
-0.068473212 0.035606071 0.43373257 6710886
-0.06765534 0.035587493 0.43350625 6710886
-0.066838436 0.035568994 0.43328092 6710886
-0.06602899 0.035554074 0.43309915 6710886
-0.065220676 0.035539411 0.43292055 6710886
-0.064413384 0.035524957 0.43274447 6710886
-0.063606739 0.03551051 0.43256852 6710886
-0.062802218 0.035496905 0.43240276 6710886
-0.062002152 0.03548551 0.43226394 6710886
-0.061204318 0.035475116 0.43213734 6710886
-0.060407415 0.035464998 0.43201411 6710886
-0.059610974 0.035454892 0.43189099 6710886
-0.058816399 0.035445645 0.43177834 6710886
-0.058024246 0.035437629 0.43168068 6710886
-0.057235409 0.035431445 0.43160537 6710886
-0.056447178 0.035425469 0.43153259 6710886
-0.05565922 0.035419501 0.4314599 6710886
-0.05487239 0.035414096 0.43139404 6710886
-0.054086793 0.035409339 0.4313361 6710886
-0.053305332 0.035407193 0.43130994 6710886
-0.052524231 0.035405222 0.43128595 6710886
-0.051743221 0.035403255 0.43126199 6710886
-0.050962549 0.035401464 0.43124017 6710886
-0.050182268 0.035399895 0.43122104 6710886
-0.049406026 0.035401169 0.43123657 6710886
-0.048630316 0.035402868 0.43125728 6710886
-0.047854871 0.035404824 0.43128109 6710886
-0.047079343 0.035406779 0.4313049 6710886
-0.046303723 0.035408732 0.43132868 6710886
-0.045531005 0.035413001 0.43138072 6710886
-0.044759031 0.035418015 0.43144178 6710886
-0.04398787 0.03542386 0.43151298 6710886
-0.043216452 0.035429701 0.43158415 6710886
-0.042444777 0.035435546 0.43165535 6710886
-0.04167464 0.035442919 0.43174514 6710886
-0.040905174 0.035451151 0.43184543 6710886
-0.040137064 0.035460901 0.43196419 6710886
-0.039368529 0.035470653 0.43208301 6710886
-0.038599566 0.03548041 0.43220183 6710886
-0.037831102 0.035491034 0.43233126 6710886
-0.037063032 0.035502486 0.43247074 6710886
-0.036296781 0.035516206 0.43263787 6710886
-0.035529934 0.035529934 0.43280512 6710886
-0.034762494 0.035543673 0.43297249 6710886
-0.033994734 0.03555771 0.43314347 6710886
-0.033227034 0.035572469 0.43332326 6710886
-0.032461084 0.035589866 0.43353516 6710886
-0.031694394 0.035607282 0.43374732 6710886
-0.030926948 0.035624713 0.43395966 6710886
-0.030158751 0.035642158 0.43417218 6710886
-0.029392358 0.035662729 0.43442273 6710886
-0.028625248 0.035683528 0.43467611 6710886
-0.027857242 0.035704352 0.43492979 6710886
-0.027088339 0.035725199 0.43518373 6710886
-0.026320435 0.035748649 0.43546939 6710886
-0.025552129 0.035772983 0.43576577 6710886
-0.024782773 0.035797339 0.43606248 6710886
-0.024012368 0.035821728 0.43635958 6710886
-0.02324242 0.035848476 0.43668541 6710886
-0.022472093 0.035876498 0.43702677 6710886
-0.021700563 0.035904568 0.43736869 6710886
-0.020927826 0.035932682 0.43771115 6710886
-0.020155223 0.035963241 0.43808341 6710886
-0.019382022 0.035995182 0.43847251 6710886
-0.018607449 0.036027186 0.43886235 6710886
-0.017831493 0.036059242 0.43925282 6710886
-0.017055539 0.036094282 0.43967968 6710886
-0.016278537 0.03613041 0.44011977 6710886
-0.015499975 0.036166608 0.4405607 6710886
-0.014719851 0.036202878 0.44100252 6710886
-0.013939711 0.036243249 0.44149432 6710886
-0.013157894 0.036283888 0.44198936 6710886
-0.012374317 0.036324609 0.44248539 6710886
-0.011589425 0.036366817 0.44299951 6710886
-0.010803632 0.036412239 0.44355285 6710886
-0.010015871 0.036457773 0.4441075 6710886
-0.0092261387 0.036503419 0.44466355 6710886
-0.0084353248 0.036553074 0.44526839 6710886
-0.0076425611 0.036603846 0.44588688 6710886
-0.006847593 0.036654763 0.44650713 6710886
-0.0060507953 0.036708158 0.44715756 6710886
-0.0052521005 0.036764704 0.44784635 6710886
-0.0044509405 0.036821418 0.44853723 6710886
-0.0036474434 0.036879703 0.44924724 6710886
-0.0028417434 0.036942665 0.45001417 6710886
-0.0020332877 0.037005838 0.4507837 6710886
-0.0012221067 0.037070572 0.45157227 6710886
-0.00040813987 0.037140727 0.45242688 6710886
0.00040891385 0.037211161 0.45328483 6710886
0.0012291571 0.03728443 0.45417738 6710886
0.0020529011 0.037362799 0.45513201 6710886
0.0028801151 0.037441496 0.45609066 6710886
0.0037113817 0.037526194 0.45712239 6710886
0.0045467527 0.037614044 0.45819253 6710886
0.0053862971 0.03770408 0.45928931 6710886
0.006231185 0.037802521 0.46048847 6710886
0.0070804977 0.037901487 0.461694 6710886
0.0079363864 0.038011111 0.46302938 6710886
0.0087975487 0.03812271 0.46438882 6710886
0.0096664801 0.038245637 0.46588624 6710886
0.010541881 0.038372442 0.46743092 6710886
0.011427449 0.038514737 0.46916425 6710886
0.012321381 0.038663644 0.47097814 6710886
0.013228323 0.038831528 0.47302324 6710886
0.014149628 0.039018668 0.47530288 6710886
0.015088407 0.039229859 0.47787547 6710886
0.016052347 0.039480098 0.48092371 6710886
0.017057417 0.039800636 0.48482835 6710886
0.01815507 0.0402954 0.49085525 7237230
-0.11469154 0.039948739 0.47616723 6710886
-0.11266299 0.039538335 0.47127542 6710886
-0.111021 0.039258376 0.46793848 6710886
-0.10956239 0.039039474 0.46532926 6710886
-0.10820694 0.038854226 0.46312124 6710886
-0.10691638 0.038689584 0.46115878 6710886
-0.10568073 0.038542382 0.45940423 6710886
-0.10449868 0.03841256 0.4578568 6710886
-0.10333606 0.038287863 0.45637047 6710886
-0.10222276 0.038179584 0.45507985 6710886
-0.10111701 0.038072396 0.45380226 6710886
-0.1000507 0.037978426 0.45268217 6710886
-0.098989658 0.037884928 0.45156774 6710886
-0.097957857 0.037801165 0.4505693 6710886
-0.096934952 0.037719458 0.44959542 6710886
-0.095927238 0.037642334 0.44867614 6710886
-0.094936557 0.037570637 0.44782156 6710886
-0.093949653 0.037499215 0.44697025 6710886
-0.092983864 0.037435062 0.44620556 6710886
-0.092024073 0.03737222 0.44545653 6710886
-0.091069013 0.037310213 0.44471744 6710886
-0.090132818 0.0372549 0.44405812 6710886
-0.089199401 0.037199751 0.44340077 6710886
-0.088270634 0.037145559 0.44275486 6710886
-0.087357588 0.037097055 0.44217673 6710886
-0.086446911 0.037048675 0.44160005 6710886
-0.085538618 0.037000425 0.44102493 6710886
-0.084645577 0.036957927 0.44051838 6710886
-0.083754733 0.036915593 0.44001377 6710886
-0.082865924 0.036873356 0.43951032 6710886
-0.081987053 0.036834762 0.43905032 6710886
-0.081113607 0.036797881 0.4386107 6710886
-0.080241911 0.036761072 0.43817198 6710886
-0.079374246 0.036725398 0.43774676 6710886
-0.078516185 0.036693491 0.43736646 6710886
-0.077659599 0.03666164 0.43698677 6710886
-0.076804504 0.036629841 0.43660778 6710886
-0.075956516 0.03660081 0.43626171 6710886
-0.075113371 0.036573529 0.43593654 6710886
-0.074271478 0.036546282 0.43561181 6710886
-0.073430836 0.03651908 0.43528756 6710886
-0.072598584 0.036495507 0.43500656 6710886
-0.071768463 0.036472496 0.43473232 6710886
-0.070939399 0.036449526 0.43445849 6710886
-0.070111372 0.036426578 0.434185 6710886
-0.06929177 0.036407538 0.43395805 6710886
-0.068473041 0.036388531 0.43373147 6710886
-0.067655176 0.036369544 0.43350518 6710886
-0.066838272 0.036350638 0.43327981 6710886
-0.066028818 0.036335386 0.43309802 6710886
-0.065220512 0.036320407 0.43291947 6710886
-0.06441322 0.036305632 0.4327434 6710886
-0.063606583 0.036290873 0.43256745 6710886
-0.062802032 0.036276948 0.43240148 6710886
-0.062001966 0.036265302 0.43226266 6710886
-0.061204169 0.036254697 0.43213627 6710886
-0.06040727 0.036244363 0.43201306 6710886
-0.059610825 0.036234029 0.43188992 6710886
-0.058816213 0.036224555 0.43177697 6710886
-0.05802406 0.03621636 0.43167931 6710886
-0.057235263 0.036210064 0.43160427 6710886
-0.056447033 0.036203958 0.43153149 6710886
-0.055659074 0.03619786 0.43145877 6710886
-0.054872211 0.036192309 0.43139264 6710886
-0.054086618 0.036187451 0.4313347 6710886
-0.053305171 0.036185261 0.43130863 6710886
-0.052524071 0.036183249 0.43128464 6710886
-0.051743064 0.036181241 0.4312607 6710886
-0.050962385 0.036179405 0.4312388 6710886
-0.050182108 0.036177799 0.43121967 6710886
-0.049405865 0.036179099 0.43123516 6710886
-0.048630167 0.036180843 0.43125597 6710886
-0.047854725 0.036182843 0.43127978 6710886
-0.047079198 0.03618484 0.43130359 6710886
-0.046303581 0.036186833 0.43132734 6710886
-0.045530837 0.036191177 0.43137914 6710886
-0.04475889 0.036196318 0.43144041 6710886
-0.043987732 0.036202293 0.43151161 6710886
-0.043216314 0.036208261 0.43158278 6710886
-0.042444643 0.036214236 0.43165398 6710886
-0.041674484 0.036221746 0.4317435 6710886
-0.040905043 0.03623018 0.43184403 6710886
-0.04013693 0.036240142 0.43196276 6710886
-0.039368398 0.036250111 0.43208158 6710886
-0.038599439 0.03626008 0.4322004 6710886
-0.037830949 0.036270909 0.43232951 6710886
-0.037062898 0.036282625 0.43246916 6710886
-0.036296651 0.036296651 0.43263632 6710886
-0.035529803 0.03631068 0.43280354 6710886
-0.034762368 0.036324721 0.43297091 6710886
-0.033994604 0.036339059 0.4331418 6710886
-0.033226896 0.036354136 0.43332151 6710886
-0.032460958 0.036371917 0.43353343 6710886
-0.031694267 0.036389712 0.43374556 6710886
-0.030926825 0.03640753 0.43395793 6710886
-0.030158632 0.03642536 0.43417045 6710886
-0.029392235 0.03644637 0.43442091 6710886
-0.028625129 0.03646763 0.43467429 6710886
-0.027857127 0.036488913 0.43492797 6710886
-0.027088227 0.036510218 0.43518195 6710886
-0.02632032 0.036534175 0.43546748 6710886
-0.025552018 0.036559042 0.43576387 6710886
-0.024782665 0.036583934 0.43606058 6710886
-0.024012262 0.03660886 0.43635768 6710886
-0.023242313 0.036636189 0.43668342 6710886
-0.022471992 0.036664829 0.4370248 6710886
-0.021700466 0.036693513 0.43736672 6710886
-0.020927731 0.036722247 0.43770918 6710886
-0.020155126 0.036753468 0.43808132 6710886
-0.019381931 0.036786113 0.43847045 6710886
-0.018607359 0.036818817 0.43886027 6710886
-0.017831409 0.036851577 0.43925077 6710886
-0.017055456 0.036887381 0.43967751 6710886
-0.016278459 0.03692431 0.44011766 6710886
-0.0154999 0.036961302 0.44055858 6710886
-0.014719781 0.036998369 0.4410004 6710886
-0.01393964 0.037039615 0.44149205 6710886
-0.013157826 0.037081145 0.44198707 6710886
-0.012374253 0.03712276 0.4424831 6710886
-0.011589364 0.037165891 0.44299719 6710886
-0.010803573 0.037212305 0.44355044 6710886
-0.010015817 0.037258841 0.44410509 6710886
-0.0092260893 0.037305489 0.44466114 6710886
-0.0084352773 0.037356228 0.44526589 6710886
-0.0076425187 0.037408117 0.44588441 6710886
-0.0068475553 0.037460156 0.44650465 6710886
-0.0060507595 0.037514709 0.44715491 6710886
-0.0052520693 0.037572496 0.4478437 6710886
-0.0044509149 0.037630461 0.44853461 6710886
-0.0036474208 0.037690014 0.44924447 6710886
-0.0028417262 0.037754361 0.45001143 6710886
-0.0020332753 0.03781892 0.45078096 6710886
-0.0012220988 0.037885066 0.45156935 6710886
-0.00040813725 0.037956763 0.45242396 6710886
0.0004089112 0.038028743 0.45328191 6710886
0.0012291485 0.038103603 0.45417422 6710886
0.0020528869 0.038183697 0.45512888 6710886
0.0028800953 0.038264126 0.45608753 6710886
0.0037113547 0.038350664 0.45711905 6710886
0.0045467191 0.038440444 0.45818916 6710886
0.0053862552 0.038532443 0.45928574 6710886
0.0062311366 0.038633049 0.46048489 6710886
0.0070804423 0.038734183 0.4616904 6710886
0.0079363193 0.038846195 0.46302551 6710886
0.0087974742 0.038960245 0.46438491 6710886
0.0096663916 0.039085846 0.465882 6710886
0.010541784 0.039215438 0.46742666 6710886
0.011427336 0.039360829 0.46915963 6710886
0.012321246 0.039512962 0.47097299 6710886
0.013228178 0.039684534 0.47301805 6710886
0.014149454 0.039875735 0.47529706 6710886
0.015088198 0.040091496 0.47786883 6710886
0.016052084 0.040347129 0.48091581 6710886
0.017057071 0.040674556 0.48481855 6710886
0.018154334 0.041179344 0.49083537 7237230
-0.11469299 0.040808365 0.47617322 6710886
-0.1126639 0.040388949 0.47127923 6710886
-0.11102161 0.040102862 0.46794105 6710886
-0.10956281 0.03987918 0.46533102 6710886
-0.1082072 0.039689902 0.4631224 6710886
-0.10691656 0.039521687 0.46115959 6710886
-0.1056809 0.039371315 0.45940498 6710886
-0.10449879 0.039238673 0.45785725 6710886
-0.1033361 0.039111275 0.45637068 6710886
-0.1022228 0.039000668 0.45508006 6710886
-0.10111701 0.038891159 0.45380226 6710886
-0.1000507 0.038795166 0.45268217 6710886
-0.098989658 0.03869966 0.45156774 6710886
-0.097957812 0.038614076 0.45056909 6710886
-0.096934907 0.038530611 0.44959521 6710886
-0.095927171 0.038451821 0.44867581 6710886
-0.094936505 0.038378585 0.44782129 6710886
-0.093949586 0.038305625 0.44696996 6710886
-0.092983767 0.038240079 0.44620511 6710886
-0.092023976 0.038175885 0.44545606 6710886
-0.091068901 0.038112536 0.44471687 6710886
-0.090132706 0.038056031 0.44405755 6710886
-0.08919929 0.037999697 0.4434002 6710886
-0.0882705 0.037944335 0.44275421 6710886
-0.087357454 0.037894785 0.44217607 6710886
-0.086446784 0.037845366 0.4415994 6710886
-0.085538492 0.037796076 0.44102427 6710886
-0.084645435 0.037752658 0.44051763 6710886
-0.083754592 0.037709411 0.44001302 6710886
-0.082865782 0.037666265 0.43950957 6710886
-0.081986904 0.03762684 0.43904951 6710886
-0.081113458 0.037589163 0.4386099 6710886
-0.080241762 0.037551563 0.43817115 6710886
-0.07937409 0.037515115 0.43774587 6710886
-0.078516014 0.037482519 0.43736553 6710886
-0.077659443 0.037449986 0.43698588 6710886
-0.076804347 0.037417501 0.43660685 6710886
-0.075956352 0.03738784 0.43626076 6710886
-0.075113207 0.037359972 0.43593559 6710886
-0.074271321 0.037332144 0.43561086 6710886
-0.073430687 0.037304357 0.43528664 6710886
-0.072598413 0.037280265 0.43500552 6710886
-0.071768291 0.037256762 0.43473127 6710886
-0.070939228 0.037233297 0.43445745 6710886
-0.070111208 0.037209861 0.43418398 6710886
-0.069291584 0.0371904 0.43395692 6710886
-0.06847287 0.037170988 0.43373039 6710886
-0.067655005 0.037151594 0.4335041 6710886
-0.066838086 0.037132271 0.43327862 6710886
-0.06602864 0.037116691 0.43309686 6710886
-0.065220356 0.037101399 0.43291843 6710886
-0.064413063 0.037086312 0.43274236 6710886
-0.063606434 0.037071235 0.43256643 6710886
-0.06280183 0.037056983 0.43240014 6710886
-0.062001776 0.037045088 0.43226132 6710886
-0.06120402 0.037034281 0.43213522 6710886
-0.060407124 0.037023719 0.43201202 6710886
-0.059610683 0.037013169 0.43188891 6710886
-0.058816023 0.037003461 0.4317756 6710886
-0.058023877 0.036995091 0.43167794 6710886
-0.057235118 0.036988683 0.43160316 6710886
-0.056446888 0.036982443 0.43153039 6710886
-0.055658929 0.036976211 0.43145767 6710886
-0.054872032 0.036970519 0.43139121 6710886
-0.054086439 0.036965553 0.43133327 6710886
-0.053305019 0.036963336 0.43130741 6710886
-0.052523922 0.03696128 0.43128341 6710886
-0.051742915 0.036959227 0.43125945 6710886
-0.050962225 0.036957338 0.43123743 6710886
-0.050181948 0.036955699 0.4312183 6710886
-0.049405698 0.036957018 0.4312337 6710886
-0.048630014 0.03695881 0.43125463 6710886
-0.047854576 0.036960851 0.43127844 6710886
-0.047079053 0.036962893 0.43130225 6710886
-0.04630344 0.036964931 0.43132603 6710886
-0.045530666 0.036969345 0.43137753 6710886
-0.044758748 0.03697462 0.43143907 6710886
-0.043987595 0.036980722 0.43151027 6710886
-0.04321618 0.03698682 0.43158144 6710886
-0.042444509 0.036992922 0.43165264 6710886
-0.04167432 0.037000567 0.43174183 6710886
-0.040904906 0.037009202 0.4318426 6710886
-0.040136799 0.037019376 0.43196133 6710886
-0.039368268 0.037029561 0.43208015 6710886
-0.038599312 0.037039742 0.43219897 6710886
-0.0378308 0.037050784 0.43232781 6710886
-0.037062764 0.037062764 0.43246761 6710886
-0.03629652 0.037077092 0.43263477 6710886
-0.035529677 0.037091423 0.43280199 6710886
-0.034762245 0.037105765 0.43296936 6710886
-0.03399447 0.037120398 0.4331401 6710886
-0.033226766 0.037135795 0.43331978 6710886
-0.032460824 0.037153956 0.43353167 6710886
-0.031694137 0.037172135 0.4337438 6710886
-0.030926701 0.037190337 0.43395618 6710886
-0.030158509 0.03720855 0.4341687 6710886
-0.02939211 0.037230007 0.43441907 6710886
-0.028625006 0.037251722 0.43467245 6710886
-0.027857007 0.037273463 0.43492612 6710886
-0.027088113 0.037295226 0.4351801 6710886
-0.026320204 0.037319694 0.43546557 6710886
-0.025551908 0.037345096 0.43576199 6710886
-0.024782557 0.037370522 0.43605867 6710886
-0.024012158 0.037395984 0.43635577 6710886
-0.023242207 0.037423894 0.43668145 6710886
-0.02247189 0.037453149 0.43702281 6710886
-0.021700367 0.037482452 0.43736473 6710886
-0.020927634 0.037511799 0.43770716 6710886
-0.020155033 0.037543688 0.43807927 6710886
-0.01938184 0.037577037 0.4384684 6710886
-0.018607272 0.037610445 0.43885821 6710886
-0.017831326 0.037643906 0.43924868 6710886
-0.017055372 0.037680473 0.43967533 6710886
-0.016278379 0.037718192 0.44011548 6710886
-0.015499824 0.037755981 0.44055641 6710886
-0.014719707 0.037793841 0.4409982 6710886
-0.013939568 0.037835971 0.44148976 6710886
-0.013157759 0.037878398 0.44198483 6710886
-0.012374191 0.037920907 0.44248086 6710886
-0.011589302 0.037964951 0.4429948 6710886
-0.010803515 0.038012367 0.44354805 6710886
-0.010015763 0.038059901 0.4441027 6710886
-0.0092260391 0.038107552 0.44465873 6710886
-0.0084352298 0.03815937 0.44526339 6710886
-0.0076424759 0.038212378 0.4458819 6710886
-0.0068475166 0.038265534 0.44650215 6710886
-0.0060507241 0.038321253 0.44715229 6710886
-0.0052520386 0.03838028 0.44784108 6710886
-0.0044508884 0.03843949 0.44853196 6710886
-0.0036473987 0.03850032 0.44924173 6710886
-0.0028417085 0.038566042 0.45000863 6710886
-0.0020332627 0.038631991 0.45077816 6710886
-0.0012220909 0.038699545 0.45156643 6710886
-0.0004081346 0.038772788 0.45242104 6710886
0.00040890856 0.03884631 0.45327896 6710886
0.0012291401 0.038922772 0.45417112 6710886
0.0020528727 0.039004579 0.45512572 6710886
0.0028800752 0.039086737 0.45608434 6710886
0.0037113274 0.039175123 0.45711571 6710886
0.0045466861 0.039266832 0.45818582 6710886
0.0053862138 0.039360791 0.45928219 6710886
0.0062310873 0.039463554 0.46048126 6710886
0.0070803859 0.039566863 0.46168673 6710886
0.0079362523 0.039681263 0.46302161 6710886
0.0087973997 0.039797764 0.46438098 6710886
0.009666305 0.039926041 0.4658778 6710886
0.010541689 0.040058415 0.46742243 6710886
0.011427223 0.040206894 0.46915495 6710886
0.012321112 0.040362261 0.47096786 6710886
0.013228033 0.040537521 0.47301286 6710886
0.01414928 0.040732779 0.47529122 6710886
0.015087987 0.040953107 0.47786215 6710886
0.01605182 0.041214131 0.48090789 6710886
0.017056726 0.041548435 0.48480874 6710886
0.018153599 0.042063218 0.49081549 7237230
-0.11469444 0.04166802 0.47617927 6710886
-0.11266481 0.041239571 0.47128302 6710886
-0.11102222 0.040947359 0.46794361 6710886
-0.10956322 0.040718898 0.46533278 6710886
-0.10820749 0.040525585 0.46312362 6710886
-0.10691674 0.04035379 0.46116036 6710886
-0.10568107 0.040200252 0.45940572 6710886
-0.10449889 0.040064789 0.4578577 6710886
-0.10333616 0.039934691 0.45637092 6710886
-0.10222284 0.039821751 0.45508024 6710886
-0.101117 0.039709914 0.4538022 6710886
-0.1000507 0.039611906 0.45268217 6710886
-0.098989658 0.039514389 0.45156774 6710886
-0.097957775 0.03942699 0.45056894 6710886
-0.096934885 0.039341774 0.44959509 6710886
-0.095927097 0.039261304 0.44867548 6710886
-0.09493643 0.039186526 0.44782096 6710886
-0.093949519 0.039112031 0.44696963 6710886
-0.092983671 0.039045092 0.44620463 6710886
-0.092023887 0.038979549 0.44545564 6710886
-0.091068782 0.038914856 0.4447163 6710886
-0.090132594 0.038857162 0.44405699 6710886
-0.089199178 0.038799644 0.44339967 6710886
-0.088270374 0.038743105 0.44275355 6710886
-0.087357327 0.038692515 0.44217542 6710886
-0.086446658 0.038642053 0.44159874 6710886
-0.085538365 0.038591728 0.44102362 6710886
-0.084645286 0.038547385 0.44051689 6710886
-0.08375445 0.03850323 0.44001228 6710886
-0.082865648 0.038459174 0.43950883 6710886
-0.081986748 0.038418911 0.43904868 6710886
-0.081113301 0.03838044 0.43860906 6710886
-0.080241613 0.038342051 0.43817034 6710886
-0.079373933 0.038304832 0.437745 6710886
-0.078515865 0.03827155 0.43736467 6710886
-0.077659287 0.038238328 0.43698502 6710886
-0.076804191 0.038205162 0.43660599 6710886
-0.075956181 0.038174868 0.43625978 6710886
-0.075113036 0.03814641 0.43593457 6710886
-0.07427115 0.038117997 0.43560988 6710886
-0.073430516 0.038089626 0.43528563 6710886
-0.072598234 0.03806502 0.43500447 6710886
-0.07176812 0.038041025 0.43473026 6710886
-0.070939064 0.038017064 0.43445644 6710886
-0.070111044 0.037993133 0.43418294 6710886
-0.069291413 0.037973262 0.43395585 6710886
-0.068472698 0.037953436 0.43372929 6710886
-0.067654833 0.037933636 0.433503 6710886
-0.066837907 0.0379139 0.43327746 6710886
-0.066028461 0.037897993 0.43309569 6710886
-0.065220207 0.037882395 0.43291742 6710886
-0.064412914 0.037866987 0.43274134 6710886
-0.063606285 0.037851594 0.43256542 6710886
-0.062801644 0.037837014 0.43239883 6710886
-0.062001586 0.037824869 0.43226001 6710886
-0.061203867 0.037813853 0.43213415 6710886
-0.060406975 0.037803072 0.43201095 6710886
-0.059610534 0.037792299 0.43188784 6710886
-0.058815837 0.03778236 0.43177423 6710886
-0.058023687 0.03777381 0.43167654 6710886
-0.057234965 0.037767287 0.431602 6710886
-0.056446739 0.037760921 0.43152922 6710886
-0.05565878 0.037754558 0.43145651 6710886
-0.054871857 0.037748724 0.43138984 6710886
-0.054086268 0.037743654 0.4313319 6710886
-0.053304866 0.0377414 0.43130615 6710886
-0.052523769 0.037739303 0.43128216 6710886
-0.05174277 0.037737206 0.43125823 6710886
-0.050962061 0.037735268 0.43123606 6710886
-0.050181784 0.037733592 0.4312169 6710886
-0.049405534 0.037734937 0.43123227 6710886
-0.048629865 0.037736773 0.43125328 6710886
-0.047854427 0.03773886 0.4312771 6710886
-0.047078907 0.037740942 0.43130091 6710886
-0.046303295 0.037743025 0.43132469 6710886
-0.045530498 0.037747506 0.43137592 6710886
-0.04475861 0.037752915 0.43143773 6710886
-0.043987457 0.037759144 0.43150893 6710886
-0.043216046 0.037765376 0.43158013 6710886
-0.042444382 0.037771605 0.43165132 6710886
-0.041674156 0.037779376 0.43174013 6710886
-0.040904772 0.037788216 0.43184116 6710886
-0.040136669 0.03779861 0.43195993 6710886
-0.039368138 0.037809003 0.43207872 6710886
-0.038599186 0.037819404 0.43219757 6710886
-0.037830655 0.037830655 0.43232614 6710886
-0.037062634 0.0378429 0.43246606 6710886
-0.03629639 0.037857521 0.43263319 6710886
-0.03552955 0.037872158 0.43280044 6710886
-0.034762118 0.037886802 0.43296778 6710886
-0.033994336 0.037901733 0.4331384 6710886
-0.033226632 0.03791745 0.43331802 6710886
-0.032460693 0.037935991 0.43352991 6710886
-0.03169401 0.037954558 0.43374208 6710886
-0.030926576 0.037973136 0.43395442 6710886
-0.030158386 0.037991732 0.43416694 6710886
-0.029391989 0.038013641 0.43441728 6710886
-0.028624889 0.03803581 0.43467066 6710886
-0.027856892 0.038058005 0.4349243 6710886
-0.027088 0.03808023 0.43517828 6710886
-0.026320089 0.038105205 0.43546367 6710886
-0.025551796 0.03813114 0.43576008 6710886
-0.024782447 0.038157102 0.43605676 6710886
-0.024012053 0.038183101 0.43635386 6710886
-0.023242101 0.038211592 0.43667945 6710886
-0.022471787 0.038241465 0.43702084 6710886
-0.021700269 0.038271382 0.43736276 6710886
-0.020927543 0.038301349 0.43770522 6710886
-0.020154938 0.0383339 0.43807721 6710886
-0.019381747 0.038367946 0.43846628 6710886
-0.018607182 0.038402058 0.4388561 6710886
-0.017831238 0.038436227 0.43924657 6710886
-0.017055288 0.038473558 0.43967319 6710886
-0.016278297 0.03851207 0.44011331 6710886
-0.015499747 0.038550653 0.44055423 6710886
-0.014719634 0.03858931 0.44099602 6710886
-0.013939497 0.038632322 0.44148752 6710886
-0.013157692 0.03867564 0.44198257 6710886
-0.012374126 0.038719043 0.44247857 6710886
-0.011589239 0.038764007 0.44299242 6710886
-0.010803458 0.038812425 0.44354573 6710886
-0.01001571 0.038860954 0.44410035 6710886
-0.0092259897 0.03890961 0.44465637 6710886
-0.0084351823 0.038962509 0.44526091 6710886
-0.007642433 0.039016631 0.4458794 6710886
-0.006847478 0.039070904 0.44649962 6710886
-0.0060506887 0.039127786 0.44714966 6710886
-0.0052520079 0.039188057 0.44783846 6710886
-0.0044508623 0.039248515 0.44852933 6710886
-0.0036473759 0.039310608 0.44923893 6710886
-0.0028416908 0.039377715 0.45000583 6710886
-0.0020332499 0.03944505 0.45077533 6710886
-0.001222083 0.039514016 0.45156348 6710886
-0.00040813192 0.039588794 0.45241806 6710886
0.00040890585 0.03966387 0.45327598 6710886
0.0012291317 0.039741922 0.45416799 6710886
0.0020528587 0.039825458 0.45512262 6710886
0.0028800555 0.03990934 0.45608121 6710886
0.0037113004 0.039999571 0.45711237 6710886
0.0045466525 0.04009321 0.45818245 6710886
0.0053861719 0.040189128 0.45927861 6710886
0.0062310388 0.040294051 0.46047765 6710886
0.007080331 0.040399533 0.46168312 6710886
0.0079361862 0.040516321 0.46301773 6710886
0.0087973261 0.040635269 0.46437708 6710886
0.0096662166 0.040766221 0.46587357 6710886
0.010541593 0.040901378 0.46741816 6710886
0.01142711 0.041052952 0.46915033 6710886
0.012320978 0.041211545 0.47096273 6710886
0.013227889 0.04139049 0.47300771 6710886
0.014149108 0.0415898 0.47528541 6710886
0.015087777 0.041814696 0.4778555 6710886
0.016051555 0.042081103 0.48089999 6710886
0.017056381 0.04242228 0.48479894 6710886
0.018152865 0.04294702 0.49079561 7237230
-0.1146959 0.042527694 0.47618532 6710886
-0.11266572 0.042090215 0.47128683 6710886
-0.11102282 0.041791864 0.46794617 6710886
-0.10956363 0.04155862 0.46533453 6710886
-0.10820777 0.041361269 0.46312481 6710886
-0.10691692 0.041185893 0.46116111 6710886
-0.10568126 0.041029193 0.45940652 6710886
-0.104499 0.040890913 0.45785818 6710886
-0.10333621 0.040758103 0.45637113 6710886
-0.10222289 0.040642835 0.45508045 6710886
-0.101117 0.040528677 0.4538022 6710886
-0.1000507 0.040428646 0.45268217 6710886
-0.098989658 0.040329117 0.45156774 6710886
-0.097957738 0.0402399 0.45056877 6710886
-0.09693484 0.040152926 0.44959489 6710886
-0.095927022 0.040070783 0.44867513 6710886
-0.094936356 0.039994463 0.4478206 6710886
-0.093949452 0.039918438 0.4469693 6710886
-0.092983574 0.039850101 0.44620416 6710886
-0.09202379 0.03978321 0.44545516 6710886
-0.091068678 0.039717179 0.4447158 6710886
-0.090132482 0.039658293 0.44405645 6710886
-0.089199066 0.039599586 0.4433991 6710886
-0.08827024 0.039541874 0.4427529 6710886
-0.087357201 0.039490242 0.44217476 6710886
-0.086446524 0.039438739 0.44159809 6710886
-0.085538238 0.039387375 0.44102296 6710886
-0.084645145 0.039342109 0.44051614 6710886
-0.083754309 0.039297044 0.44001153 6710886
-0.082865506 0.039252084 0.43950811 6710886
-0.081986591 0.039210979 0.43904784 6710886
-0.081113152 0.039171714 0.43860823 6710886
-0.080241457 0.039132535 0.43816951 6710886
-0.079373762 0.039094541 0.43774408 6710886
-0.078515694 0.03906057 0.43736374 6710886
-0.077659123 0.039026666 0.43698409 6710886
-0.076804034 0.038992818 0.4366051 6710886
-0.075956009 0.038961891 0.43625882 6710886
-0.075112872 0.038932849 0.43593362 6710886
-0.074270986 0.038903851 0.43560892 6710886
-0.073430352 0.038874891 0.43528467 6710886
-0.072598062 0.038849775 0.43500343 6710886
-0.071767949 0.038825285 0.43472922 6710886
-0.070938893 0.038800828 0.43445539 6710886
-0.070110872 0.038776405 0.4341819 6710886
-0.069291241 0.038756121 0.43395478 6710886
-0.068472527 0.038735885 0.43372822 6710886
-0.067654669 0.038715675 0.43350193 6710886
-0.066837728 0.038695525 0.4332763 6710886
-0.066028289 0.038679294 0.43309453 6710886
-0.065220051 0.03866338 0.43291637 6710886
-0.064412758 0.038647655 0.4327403 6710886
-0.063606128 0.038631946 0.43256438 6710886
-0.062801458 0.038617045 0.43239754 6710886
-0.062001403 0.038604647 0.43225873 6710886
-0.061203722 0.03859343 0.43213311 6710886
-0.060406826 0.038582426 0.43200991 6710886
-0.059610389 0.038571429 0.43188676 6710886
-0.058815647 0.038561251 0.43177283 6710886
-0.058023505 0.03855253 0.43167517 6710886
-0.057234816 0.038545899 0.4316009 6710886
-0.056446593 0.038539398 0.43152812 6710886
-0.055658638 0.038532902 0.4314554 6710886
-0.054871675 0.038526919 0.43138841 6710886
-0.054086089 0.038521744 0.43133047 6710886
-0.053304706 0.038519461 0.43130487 6710886
-0.052523613 0.038517319 0.43128088 6710886
-0.051742613 0.038515177 0.43125692 6710886
-0.050961897 0.038513187 0.43123466 6710886
-0.050181624 0.038511477 0.43121549 6710886
-0.049405366 0.038512845 0.43123081 6710886
-0.048629716 0.038514737 0.43125197 6710886
-0.047854282 0.03851686 0.43127578 6710886
-0.047078762 0.038518988 0.4312996 6710886
-0.046303157 0.038521111 0.43132338 6710886
-0.045530334 0.038525667 0.43137437 6710886
-0.044758469 0.038531203 0.43143636 6710886
-0.043987319 0.038537562 0.43150756 6710886
-0.043215908 0.038543917 0.43157873 6710886
-0.042444244 0.038550276 0.43164992 6710886
-0.041673999 0.038558185 0.4317385 6710886
-0.040904634 0.038567226 0.43183973 6710886
-0.040136535 0.038577836 0.4319585 6710886
-0.039368007 0.038588442 0.43207729 6710886
-0.038599059 0.038599059 0.43219614 6710886
-0.037830502 0.038610511 0.43232438 6710886
-0.037062496 0.038623024 0.43246448 6710886
-0.03629626 0.038637951 0.43263164 6710886
-0.03552942 0.038652886 0.43279886 6710886
-0.034761991 0.038667835 0.43296623 6710886
-0.033994209 0.038683064 0.43313676 6710886
-0.033226497 0.038699098 0.43331629 6710886
-0.032460563 0.038718022 0.43352818 6710886
-0.03169388 0.038736962 0.43374026 6710886
-0.030926447 0.038755927 0.43395263 6710886
-0.030158263 0.038774908 0.43416515 6710886
-0.029391864 0.038797259 0.43441543 6710886
-0.028624767 0.03881989 0.43466881 6710886
-0.027856773 0.038842544 0.43492246 6710886
-0.027087884 0.038865224 0.43517643 6710886
-0.026319975 0.038890712 0.43546179 6710886
-0.025551684 0.03891718 0.43575817 6710886
-0.024782339 0.038943678 0.43605486 6710886
-0.024011947 0.03897021 0.43635195 6710886
-0.023241999 0.038999286 0.43667752 6710886
-0.022471685 0.03902977 0.43701884 6710886
-0.021700168 0.039060302 0.43736073 6710886
-0.020927446 0.039090887 0.43770319 6710886
-0.020154843 0.039124109 0.43807516 6710886
-0.019381655 0.039158855 0.43846422 6710886
-0.018607095 0.039193667 0.43885404 6710886
-0.017831156 0.03922854 0.43924451 6710886
-0.017055204 0.039266631 0.43967101 6710886
-0.016278217 0.03930594 0.44011113 6710886
-0.01549967 0.039345317 0.44055206 6710886
-0.014719562 0.039384775 0.44099385 6710886
-0.013939425 0.039428663 0.44148526 6710886
-0.013157624 0.039472871 0.44198027 6710886
-0.012374063 0.039517172 0.4424763 6710886
-0.011589177 0.039563052 0.44299006 6710886
-0.0108034 0.039612465 0.44354331 6710886
-0.010015656 0.039662 0.44409797 6710886
-0.0092259403 0.039711658 0.44465399 6710886
-0.0084351357 0.039765637 0.44525841 6710886
-0.0076423893 0.039820872 0.44587687 6710886
-0.0068474393 0.039876264 0.44649711 6710886
-0.0060506528 0.039934311 0.44714704 6710886
-0.0052519762 0.039995819 0.44783577 6710886
-0.0044508358 0.040057521 0.44852665 6710886
-0.0036473535 0.040120889 0.44923618 6710886
-0.0028416731 0.040189378 0.45000306 6710886
-0.0020332376 0.040258102 0.45077258 6710886
-0.0012220751 0.040328477 0.45156056 6710886
-0.00040812927 0.0404048 0.45241514 6710886
0.0004089032 0.040481415 0.45327303 6710886
0.0012291232 0.040561069 0.45416489 6710886
0.0020528445 0.040646318 0.45511946 6710886
0.0028800354 0.040731929 0.45607805 6710886
0.0037112734 0.040824007 0.45710903 6710886
0.004546619 0.040919568 0.45817906 6710886
0.00538613 0.04101745 0.45927504 6710886
0.0062309904 0.041124534 0.46047407 6710886
0.0070802756 0.041232191 0.46167952 6710886
0.00793612 0.041351363 0.46301386 6710886
0.0087972526 0.041472759 0.46437317 6710886
0.009666129 0.041606382 0.46586934 6710886
0.010541496 0.041744325 0.4674139 6710886
0.011426997 0.041898988 0.46914569 6710886
0.012320844 0.042060811 0.47095761 6710886
0.013227744 0.04224344 0.47300252 6710886
0.014148935 0.042446803 0.4752796 6710886
0.015087565 0.042676255 0.4778488 6710886
0.016051292 0.042948052 0.48089212 6710886
0.017056037 0.043296091 0.48478913 6710886
0.018152129 0.043830749 0.49077573 7237230
-0.11469737 0.043387391 0.4761914 6710886
-0.11266664 0.04294087 0.47129065 6710886
-0.11102343 0.042636376 0.46794873 6710886
-0.10956404 0.042398348 0.46533629 6710886
-0.10820804 0.042196959 0.46312597 6710886
-0.10691711 0.042018007 0.46116194 6710886
-0.10568143 0.041858137 0.4594073 6710886
-0.1044991 0.04171703 0.45785862 6710886
-0.10333625 0.041581519 0.45637134 6710886
-0.10222293 0.041463923 0.45508066 6710886
-0.101117 0.041347437 0.4538022 6710886
-0.1000507 0.041245386 0.45268217 6710886
-0.098989658 0.041143849 0.45156774 6710886
-0.097957693 0.041052811 0.45056856 6710886
-0.096934803 0.040964078 0.44959471 6710886
-0.095926955 0.040880263 0.4486748 6710886
-0.094936289 0.040802404 0.44782028 6710886
-0.093949385 0.04072484 0.44696897 6710886
-0.092983484 0.040655117 0.44620374 6710886
-0.0920237 0.040586874 0.44545475 6710886
-0.091068566 0.040519495 0.44471523 6710886
-0.090132363 0.040459417 0.44405589 6710886
-0.089198947 0.040399525 0.44339854 6710886
-0.088270098 0.040340632 0.44275218 6710886
-0.087357067 0.040287964 0.44217411 6710886
-0.086446397 0.040235419 0.44159743 6710886
-0.085538112 0.040183023 0.44102234 6710886
-0.084645003 0.040136833 0.4405154 6710886
-0.083754167 0.040090859 0.44001082 6710886
-0.082865372 0.040044986 0.43950737 6710886
-0.081986435 0.040003043 0.43904701 6710886
-0.081113003 0.039962992 0.43860742 6710886
-0.080241308 0.039923016 0.43816867 6710886
-0.079373598 0.039884243 0.43774316 6710886
-0.078515537 0.039849594 0.43736285 6710886
-0.077658966 0.039815001 0.4369832 6710886
-0.07680387 0.039780468 0.43660417 6710886
-0.075955845 0.039748915 0.43625787 6710886
-0.075112708 0.039719284 0.43593267 6710886
-0.074270822 0.039689701 0.43560797 6710886
-0.073430195 0.039660159 0.43528375 6710886
-0.072597891 0.039634522 0.43500239 6710886
-0.071767777 0.03960954 0.43472818 6710886
-0.070938721 0.039584588 0.43445435 6710886
-0.070110701 0.03955967 0.43418086 6710886
-0.069291063 0.039538968 0.43395364 6710886
-0.068472356 0.03951833 0.43372715 6710886
-0.067654498 0.039497711 0.43350083 6710886
-0.066837549 0.039477147 0.43327513 6710886
-0.066028111 0.039460588 0.43309337 6710886
-0.065219894 0.039444368 0.43291536 6710886
-0.064412609 0.039428324 0.43273929 6710886
-0.063605979 0.039412297 0.43256336 6710886
-0.062801272 0.039397072 0.43239626 6710886
-0.062001221 0.039384421 0.43225744 6710886
-0.061203573 0.039372999 0.43213207 6710886
-0.060406681 0.039361775 0.43200886 6710886
-0.059610248 0.039350554 0.43188575 6710886
-0.058815457 0.039340138 0.43177143 6710886
-0.058023311 0.039331239 0.43167374 6710886
-0.057234671 0.039324503 0.4315998 6710886
-0.056446448 0.039317872 0.43152702 6710886
-0.055658497 0.039311245 0.4314543 6710886
-0.054871496 0.039305113 0.43138701 6710886
-0.05408591 0.039299835 0.43132907 6710886
-0.053304553 0.039297517 0.43130362 6710886
-0.05252346 0.039295331 0.43127963 6710886
-0.051742464 0.039293151 0.4312557 6710886
-0.050961729 0.039291106 0.43123326 6710886
-0.050181463 0.039289363 0.43121412 6710886
-0.049405202 0.039290752 0.43122938 6710886
-0.048629563 0.039292689 0.43125063 6710886
-0.047854133 0.039294858 0.43127444 6710886
-0.047078617 0.039297029 0.43129826 6710886
-0.046303011 0.039299194 0.43132204 6710886
-0.045530166 0.039303821 0.43137279 6710886
-0.044758331 0.03930949 0.43143505 6710886
-0.043987181 0.039315976 0.43150622 6710886
-0.043215774 0.039322462 0.43157741 6710886
-0.042444114 0.039328951 0.43164861 6710886
-0.041673835 0.039336983 0.4317368 6710886
-0.040904503 0.039346237 0.43183833 6710886
-0.040136401 0.039357055 0.43195707 6710886
-0.039367881 0.039367881 0.43207589 6710886
-0.038598929 0.039378706 0.43219471 6710886
-0.037830353 0.039390367 0.43232268 6710886
-0.037062366 0.039403144 0.43246293 6710886
-0.036296126 0.039418373 0.43263006 6710886
-0.035529293 0.039433613 0.43279731 6710886
-0.034761865 0.039448857 0.43296465 6710886
-0.033994075 0.039464384 0.43313506 6710886
-0.033226363 0.039480738 0.43331453 6710886
-0.032460432 0.039500043 0.43352643 6710886
-0.031693753 0.03951937 0.43373853 6710886
-0.030926323 0.039538715 0.43395087 6710886
-0.03015814 0.039558079 0.43416339 6710886
-0.029391743 0.039580882 0.43441364 6710886
-0.028624648 0.039603963 0.43466699 6710886
-0.027856659 0.039627079 0.43492067 6710886
-0.02708777 0.039650217 0.43517461 6710886
-0.02631986 0.039676208 0.43545988 6710886
-0.025551572 0.039703213 0.43575627 6710886
-0.024782231 0.039730243 0.43605295 6710886
-0.024011843 0.039757315 0.43635005 6710886
-0.023241891 0.039786965 0.43667549 6710886
-0.022471584 0.039818071 0.43701687 6710886
-0.021700073 0.039849225 0.4373588 6710886
-0.020927351 0.039880425 0.43770123 6710886
-0.020154748 0.039914303 0.43807307 6710886
-0.019381564 0.039949756 0.43846217 6710886
-0.018607007 0.039985273 0.43885198 6710886
-0.01783107 0.040020846 0.43924242 6710886
-0.01705512 0.040059701 0.43966883 6710886
-0.016278137 0.0400998 0.44010895 6710886
-0.015499594 0.040139973 0.44054988 6710886
-0.014719489 0.040180229 0.44099167 6710886
-0.013939354 0.040224992 0.44148299 6710886
-0.013157557 0.040270098 0.44197804 6710886
-0.012374 0.040315289 0.44247404 6710886
-0.011589115 0.04036209 0.44298768 6710886
-0.010803341 0.040412501 0.44354093 6710886
-0.010015602 0.04046303 0.44409555 6710886
-0.009225891 0.040513694 0.44465157 6710886
-0.0084350882 0.040568754 0.44525591 6710886
-0.0076423478 0.04062511 0.44587442 6710886
-0.0068474016 0.040681619 0.44649464 6710886
-0.0060506174 0.040740825 0.44714442 6710886
-0.0052519455 0.040803578 0.44783315 6710886
-0.0044508092 0.040866524 0.448524 6710886
-0.0036473309 0.040931158 0.44923338 6710886
-0.0028416554 0.041001029 0.45000026 6710886
-0.0020332248 0.041071139 0.45076975 6710886
-0.0012220672 0.041142929 0.45155764 6710886
-0.00040812659 0.041220784 0.45241216 6710886
0.00040890049 0.041298952 0.45327005 6710886
0.0012291147 0.041380197 0.45416173 6710886
0.0020528303 0.041467171 0.45511633 6710886
0.0028800156 0.041554514 0.45607492 6710886
0.0037112462 0.041648429 0.4571057 6710886
0.0045465855 0.041745923 0.45817572 6710886
0.0053860871 0.041845754 0.4592714 6710886
0.0062309415 0.041955005 0.46047047 6710886
0.0070802202 0.042064838 0.46167591 6710886
0.007936053 0.042186387 0.46300995 6710886
0.008797178 0.042310238 0.46436927 6710886
0.0096660415 0.042446531 0.46586514 6710886
0.010541401 0.042587258 0.46740967 6710886
0.011426885 0.042745013 0.46914107 6710886
0.012320709 0.042910058 0.47095248 6710886
0.013227599 0.043096371 0.47299734 6710886
0.014148762 0.043303784 0.47527379 6710886
0.015087354 0.043537792 0.47784209 6710886
0.016051028 0.043814965 0.48088416 6710886
0.017055692 0.044169866 0.48477933 6710886
0.018151395 0.04471441 0.49075589 7237230
-0.11469882 0.044247109 0.47619745 6710886
-0.11266755 0.043791536 0.47129446 6710886
